ply
format ascii 1.0
element vertex 1343
property float x
property float y
property float z
property uchar diffuse_red
property uchar diffuse_green
property uchar diffuse_blue
end_header
-0.772646 -0.492095 6.95407 70 34 45
-1.54116 -0.560544 8.01247 66 44 56
-1.81041 -0.553132 8.21601 66 48 61
1.34892 -0.386782 5.73498 136 126 144
-0.447607 -0.433734 6.69778 101 62 68
1.35159 -0.36325 5.72341 67 52 70
2.53076 -0.353707 5.59721 91 99 145
0.0922687 -0.382601 6.42697 59 27 33
0.83539 -0.354925 6.11745 144 123 143
0.717398 -0.357236 6.21733 100 60 73
-2.34072 -0.493346 8.61448 47 39 67
-2.57952 -0.484 8.79575 63 52 64
-2.64254 -0.477878 8.84953 71 56 69
-2.67081 -0.466985 8.85393 133 118 137
-2.66853 -0.466243 8.84529 133 116 137
0.572777 -0.332547 6.32121 72 48 62
0.572777 -0.332547 6.32121 72 48 62
1.12873 -0.303973 5.88387 81 59 75
-2.80378 -0.46314 8.97078 62 50 65
-1.61434 -0.376587 8.03217 59 41 53
-1.96736 -0.353309 8.30991 58 41 57
-1.96736 -0.353309 8.30991 58 41 57
-0.650357 -0.28579 6.81446 58 26 31
-2.08225 -0.319247 8.39784 123 105 125
1.037 -0.192656 5.94849 66 41 52
0.972072 -0.187587 5.99332 138 107 121
1.11402 -0.171303 5.89736 76 62 79
1.04297 -0.166677 5.96315 74 52 63
-0.700839 -0.137585 6.8725 146 126 112
-1.86576 -0.156006 8.18708 70 46 60
1.93539 -0.0943201 5.22335 128 107 126
-0.268476 -0.0915618 6.51938 58 30 36
1.14395 -0.0731595 5.84569 138 115 132
-0.375835 -0.0835999 6.6061 62 23 32
2.58213 -0.067653 5.548 106 119 166
-2.51202 -0.0767567 8.69364 62 46 67
-2.64327 -0.0498288 8.77322 124 109 133
-2.64327 -0.0498288 8.77322 124 109 133
-2.93773 -0.0437556 9.01011 90 102 142
1.67604 -0.00660345 5.42061 68 46 61
1.15739 -0.00500313 5.8411 54 40 59
1.84286 0.00768174 5.28561 73 51 64
-1.23282 0.0304409 7.43863 59 29 38
1.72915 0.0240169 5.38195 131 109 130
-0.522234 0.0592737 6.70187 92 68 57
-0.505473 0.061086 6.7141 156 139 120
-0.298069 0.0594705 6.52002 150 99 111
-2.6791 0.0831693 8.80074 62 48 65
1.33261 0.0580021 5.68937 136 116 135
1.33261 0.0580021 5.68937 136 116 135
0.922581 0.0627766 6.01639 46 35 49
0.922477 0.0630213 6.01588 47 36 50
-2.25641 0.0935172 8.48872 50 41 62
-0.299409 0.0768651 6.52939 87 39 47
-0.22833 0.0812648 6.47564 61 23 31
1.47589 0.0710514 5.57171 43 30 48
-2.47904 0.113485 8.63711 120 104 131
-0.532787 0.0916131 6.70208 175 158 136
-2.37806 0.120608 8.55597 46 33 53
-2.37853 0.120583 8.55797 45 32 51
-2.37853 0.120583 8.55797 45 32 51
-2.67469 0.127409 8.79896 59 47 65
-0.581376 0.113167 6.69704 176 161 138
-2.93701 0.155804 8.98574 67 73 111
-0.916497 0.137565 7.00533 60 21 32
-0.916497 0.137565 7.00533 60 21 32
-0.897267 0.142812 6.98956 115 65 71
-0.994504 0.151346 7.06472 115 67 73
0.164414 0.155886 6.31112 140 89 102
-0.527479 0.187341 6.77273 109 91 74
-0.595023 0.223137 6.77169 83 54 41
-1.23121 0.250414 7.39921 93 43 51
0.0740039 0.218702 6.30762 99 46 59
0.20016 0.241561 6.27667 127 73 83
-2.21895 0.345139 8.38972 71 55 67
1.31787 0.236172 5.67498 80 56 67
-2.37138 0.364231 8.52314 63 53 69
-1.38688 0.331123 7.53951 73 33 45
-2.62192 0.390067 8.7022 77 62 83
1.27514 0.265809 5.70964 72 54 70
1.56203 0.258721 5.4745 125 107 126
1.42429 0.269226 5.59818 121 111 125
1.21842 0.278912 5.75201 72 54 70
-0.042202 0.322618 6.48211 59 24 30
0.942453 0.298419 5.96991 79 56 67
1.69131 0.269113 5.37905 150 138 160
0.899141 0.304715 6.00454 75 51 59
1.45805 0.287925 5.55624 147 125 142
-0.675873 0.371961 6.56068 111 99 101
-0.672264 0.390438 6.55071 171 164 149
0.295878 0.368082 6.11592 135 82 95
1.53943 0.331877 5.48349 139 116 131
1.53857 0.331716 5.48104 139 117 133
-0.508043 0.403246 6.55012 104 87 80
-0.602059 0.409391 6.568 174 162 147
1.82959 0.341991 5.25448 101 75 92
-1.5439 0.511558 7.62512 58 24 32
0.0802457 0.426257 6.36722 64 31 40
-0.458425 0.438967 6.52378 175 167 160
-0.518637 0.447988 6.54914 99 77 77
1.44174 0.383804 5.56976 135 113 131
0.101042 0.448781 6.34877 65 30 39
-0.729333 0.472839 6.68321 33 19 17
1.93775 0.366397 5.1659 66 45 62
1.93775 0.366397 5.1659 66 45 62
-1.43781 0.532357 7.46636 67 25 32
-0.481474 0.464461 6.51277 42 22 29
1.53464 0.397241 5.47619 83 64 84
1.2304 0.417777 5.73507 82 61 79
1.46643 0.401236 5.52117 82 61 80
1.50883 0.398675 5.49497 77 54 72
1.25754 0.421013 5.70828 79 56 71
-0.894472 0.514855 6.95036 120 70 80
1.18842 0.42791 5.74838 73 55 77
-0.992537 0.524741 7.02231 122 72 80
1.02297 0.443171 5.8954 61 44 55
0.5453 0.453843 5.84329 56 33 43
0.312564 0.506413 6.18423 69 34 47
0.31242 0.506612 6.18294 66 34 45
-1.37431 0.653566 7.48775 56 21 29
0.839142 0.566067 6.00169 75 49 67
-1.70524 0.717878 7.55101 139 94 108
-2.22691 0.801897 8.36123 120 105 119
-2.22876 0.802662 8.36951 120 104 119
-0.190607 0.649081 6.31752 160 107 124
-0.429491 0.665936 6.46565 158 106 122
1.0451 0.609751 5.85115 84 62 80
1.56053 0.588319 5.45984 60 41 60
1.56053 0.588319 5.45984 60 41 60
-0.427639 0.695831 6.44426 160 106 122
-0.186612 0.679936 6.293 158 104 121
1.68427 0.581127 5.34681 139 121 133
1.5327 0.598527 5.46764 135 123 139
1.10726 0.639783 5.78508 99 72 95
1.10342 0.655131 5.7841 141 117 129
1.3468 0.641684 5.59844 96 75 88
1.03215 0.701065 5.84712 69 54 76
0.942954 0.713612 5.90319 72 50 66
0.992055 0.715436 5.86931 126 117 137
0.168458 0.731491 5.83702 151 119 138
-0.763022 0.824216 6.54378 59 58 105
-1.59971 0.918897 7.18529 63 37 46
-1.14947 0.900026 6.82995 74 38 53
-1.06641 0.894937 6.78457 75 38 53
0.218236 0.766439 5.79339 67 35 45
-1.83158 0.982752 7.34898 109 74 78
0.527449 0.743964 5.55253 128 86 99
-1.47041 0.95094 7.07815 132 84 99
1.30007 0.755643 5.59633 80 118 212
-0.356772 0.853516 6.23337 66 35 49
0.530087 0.758214 5.54327 64 38 45
-2.34424 1.15488 8.41249 47 39 54
-0.0452603 0.829022 5.98694 63 35 44
0.318479 0.797142 5.70499 63 35 43
-0.377202 0.878482 6.24971 69 39 54
0.950094 0.83283 5.88666 70 51 70
-1.56434 1.02555 7.15015 67 31 44
1.16817 0.824536 5.73327 52 42 62
-1.20331 0.994126 6.87728 77 39 51
1.07244 0.844071 5.79871 56 43 59
-0.839367 0.96563 6.59984 82 42 55
-0.839259 0.964827 6.59848 81 42 55
-1.62305 1.05254 7.18318 63 32 40
1.39909 0.814793 5.56169 129 115 135
1.54867 0.798823 5.43933 67 46 57
-0.474525 0.934634 6.31842 72 41 54
1.75636 0.778997 5.26175 70 50 64
1.77313 0.781535 5.2521 70 55 73
-0.959099 0.995609 6.68266 75 40 53
1.81837 0.776081 5.2066 63 46 63
-0.532295 0.956987 6.34738 83 44 60
0.798584 0.877807 5.81567 72 37 51
0.798584 0.877807 5.81567 72 37 51
1.02222 0.88271 5.82502 51 33 45
1.02163 0.882388 5.82258 48 31 44
-1.34694 1.06477 6.97514 98 51 69
-0.131439 0.925172 6.05058 65 33 48
-0.981548 1.03129 6.69628 87 45 59
-0.981476 1.03139 6.69544 87 46 60
0.811576 0.900278 5.83248 76 41 57
1.02801 0.898837 5.81921 114 104 122
0.0860162 0.908788 5.87759 90 47 64
-0.621244 1.00484 6.41782 97 51 64
0.619013 0.875086 5.57953 67 39 47
1.04833 0.973741 5.80087 75 59 78
1.45168 0.936504 5.49342 124 119 142
1.07019 1.00681 5.78398 63 49 74
1.1895 1.00792 5.69473 118 111 134
1.13195 1.04661 5.71469 134 119 140
1.24386 1.0553 5.62576 84 61 74
1.36653 1.08365 5.53523 93 68 87
1.15598 1.16133 5.69921 74 56 78
1.08357 1.17925 5.75841 125 124 147
1.5863 1.10798 5.35795 124 106 120
0.301396 1.17257 5.65098 59 33 41
1.05012 1.21894 5.77622 74 58 85
-1.74219 1.28806 5.69472 65 35 53
2.44855 1.23763 5.28819 145 173 209
-0.678921 1.20921 5.14995 109 56 78
-1.24525 1.24794 5.31065 77 43 59
-1.24573 1.24871 5.31354 79 44 59
0.242198 1.35397 5.67601 56 31 37
-0.655278 1.23082 5.14717 104 51 69
-0.741699 1.23015 5.13827 109 56 77
-0.741699 1.23015 5.13827 109 56 77
-0.198255 1.30684 5.44241 104 56 75
-1.97319 1.42881 5.86829 71 40 57
-1.24447 1.29679 5.3049 84 47 63
1.56587 1.3081 5.33964 93 70 85
-1.98656 1.4501 5.86411 75 40 58
-1.11963 1.28542 5.19911 78 44 57
-0.653758 1.27273 5.14477 110 58 76
-0.744784 1.26968 5.129 103 54 70
-0.744784 1.26968 5.129 103 54 70
-0.57586 1.28159 5.15662 86 47 67
1.66129 1.32399 5.26254 138 117 132
-0.719871 1.29746 5.13209 110 56 76
-1.49123 1.39348 5.49389 83 47 66
-1.28151 1.37194 5.32241 87 42 57
1.8068 1.35721 5.16151 119 117 141
1.61773 1.40172 5.29397 74 55 71
0.093621 1.54897 5.69164 66 46 51
0.0665186 1.54552 5.66521 84 54 69
0.461926 1.50254 5.46963 125 78 99
0.496152 1.49901 5.44107 126 79 99
1.38974 1.54291 5.33415 121 106 119
1.75568 1.51562 5.03159 103 94 102
1.77843 1.52514 5.01884 85 77 102
1.73966 1.56317 5.04596 114 106 122
-1.48795 1.67671 5.24412 48 44 88
0.186819 -2.20277 6.87425 71 54 70
0.786893 -9.98159 31.533 66 45 65
0.156313 -2.19463 6.88023 57 39 57
1.09735 -1.94946 6.11157 83 60 76
-0.476594 -2.30168 7.26828 174 156 145
0.975495 -1.94831 6.20136 144 121 135
-0.757113 -2.37318 7.60161 79 59 75
-2.43805 -2.79356 8.9632 85 68 88
-0.0472606 -2.17764 7.03206 127 116 142
-2.5141 -2.78217 9.0085 94 72 92
-2.5141 -2.78217 9.0085 94 72 92
-1.92811 -2.6288 8.54046 129 111 130
-2.10408 -2.64738 8.67737 89 67 83
-0.962409 -2.36537 7.7601 87 63 75
-0.249026 -2.18372 7.16543 119 94 111
1.466 -1.76961 5.80823 51 40 57
1.466 -1.76961 5.80823 51 40 57
-0.201511 -2.17049 7.14267 61 44 63
-0.224759 -2.17228 7.16779 61 42 62
-0.171253 -2.15097 7.1231 137 117 140
-0.740883 -2.2821 7.57553 75 52 68
0.885898 -1.89163 6.27506 72 49 69
-0.507399 -2.18966 7.27612 160 145 123
0.230921 -2.04905 6.80837 84 58 74
0.819055 -1.90193 6.32623 130 118 142
-0.404115 -2.1687 7.22217 37 27 25
0.74857 -1.91163 6.3745 103 72 87
-4.35628 -2.93294 9.8266 81 95 146
-1.74415 -2.50067 8.40187 79 58 71
-1.74415 -2.50067 8.40187 79 58 71
-0.798336 -2.26852 7.64201 126 113 135
0.683405 -1.90632 6.43188 60 39 56
-1.22102 -2.34928 7.98333 87 63 91
0.598192 -1.90902 6.50297 95 70 92
-1.25804 -2.34458 8.00035 83 60 81
-1.13272 -2.3028 7.88679 84 61 74
0.551297 -1.90407 6.52734 105 76 95
1.09752 -1.73617 6.08471 139 113 128
1.09091 -1.71656 6.08815 72 51 65
-2.13652 -2.42705 8.66965 73 57 73
-0.851127 -2.13748 7.65795 62 46 67
-1.82523 -2.35028 8.43713 69 51 68
-0.534655 -1.89688 6.83194 105 49 61
-0.556287 -1.89077 6.85045 147 93 111
-1.32909 -2.2134 8.02206 78 63 83
-0.544355 -1.87124 6.85962 71 24 33
-1.04206 -2.12319 7.78768 73 55 72
-1.04206 -2.12319 7.78768 73 55 72
-1.55111 -2.22231 8.20856 128 114 135
-0.771432 -1.8789 6.97567 153 102 119
1.71118 -1.4926 5.57364 61 48 73
-1.2795 -2.1026 7.97392 69 55 73
-1.82826 -2.16884 8.41502 84 61 81
1.35168 -1.50825 5.85011 131 106 127
-0.404876 -1.71512 6.75415 78 36 49
-0.487223 -1.72953 6.84401 77 29 42
-2.36901 -2.22201 8.83822 131 120 143
1.12392 -1.51323 6.03731 86 62 81
-2.47375 -2.22987 8.92289 73 57 76
-1.43776 -2.02135 8.09314 71 59 81
-0.316567 -1.67206 6.69245 145 92 109
-0.316567 -1.67206 6.69245 145 92 109
-1.64966 -2.05174 8.26167 72 54 67
1.40825 -1.43513 5.80644 72 48 60
-0.319272 -1.65177 6.70087 67 24 34
-1.21405 -1.9488 7.92293 60 44 56
-1.8267 -2.0601 8.42728 70 54 64
-0.699958 -1.64018 6.79598 43 20 26
-0.623984 -1.60511 6.73259 46 24 28
1.73852 -1.31006 5.52897 50 35 51
1.73852 -1.31006 5.52897 50 35 51
1.05842 -1.40346 6.06758 71 54 66
-0.434156 -1.51874 6.57572 48 21 28
1.36023 -1.33205 5.82023 85 60 73
1.36023 -1.33205 5.82023 85 60 73
0.521049 -1.48698 6.50409 76 59 75
1.05149 -1.38487 6.07333 127 112 137
-1.70163 -1.88157 8.27556 80 54 69
-1.70163 -1.88157 8.27556 80 54 69
-2.48171 -2.02832 8.92078 129 109 127
-2.48171 -2.02832 8.92078 129 109 127
-0.641831 -1.53336 6.7837 54 31 41
0.401436 -1.45664 6.59868 93 64 82
0.436405 -1.4327 6.56488 72 55 72
0.436405 -1.4327 6.56488 72 55 72
-2.08996 -1.86558 8.58059 89 58 68
1.35145 -1.26145 5.81904 128 111 131
1.23473 -1.27967 5.92705 42 27 41
0.654228 -1.37812 6.38918 79 53 62
0.653911 -1.3776 6.38719 81 55 63
-0.86161 -1.49385 6.94746 57 29 38
-0.86161 -1.49385 6.94746 57 29 38
-3.3107 -2.02363 9.46087 109 124 165
1.15295 -1.27556 5.99076 61 42 55
-2.24589 -1.83661 8.70226 75 61 72
-1.54102 -1.71611 8.14613 70 54 68
1.15124 -1.25536 5.97305 127 112 134
0.544552 -1.35354 6.47467 101 70 81
-1.11403 -1.46544 7.01619 119 65 73
1.15153 -1.2371 5.97656 84 62 75
1.13239 -1.20258 5.9923 73 52 64
-2.63714 -1.7892 8.97521 59 47 63
-2.63714 -1.7892 8.97521 59 47 63
-1.93547 -1.6819 8.44158 72 47 57
-2.10925 -1.65334 8.57317 131 106 125
-2.17746 -1.65384 8.63084 130 111 131
0.793638 -1.16622 6.24856 91 67 79
0.552553 -1.15581 6.43369 89 58 73
0.645179 -1.13783 6.35401 87 64 79
1.09517 -1.06719 5.9889 138 112 128
-2.89908 -1.60014 9.16501 77 68 100
-2.45887 -1.42383 8.80502 53 37 57
-2.45887 -1.42383 8.80502 53 37 57
1.61095 -0.898525 5.57778 132 112 135
0.484939 -1.01385 6.47153 102 66 78
0.682685 -0.986207 6.32321 87 60 72
0.682685 -0.986207 6.32321 87 60 72
-1.67938 -1.26137 8.19139 65 51 65
-0.300882 -0.993178 6.44231 132 84 99
-0.27603 -0.993743 6.45144 135 86 99
0.524978 -0.986605 6.44808 92 66 82
-0.208783 -0.965899 6.53163 57 24 31
1.44097 -0.830167 5.70378 90 60 73
-2.17311 -1.24428 8.57727 76 54 67
-0.219525 -0.938211 6.52567 115 70 80
-0.933768 -0.981704 6.94365 115 71 86
1.23026 -0.806935 5.87369 117 109 130
-0.337601 -0.890841 6.49488 134 87 100
-0.98682 -0.950193 7.00468 68 34 44
1.99997 -0.716305 5.29625 138 115 135
-0.385968 -0.870106 6.52392 67 27 35
-1.07986 -0.927261 7.0926 45 22 32
-2.39479 -1.12178 8.71831 54 38 48
-0.292982 -0.826762 6.47977 62 26 33
-0.292997 -0.826271 6.47758 63 26 33
-0.410791 -0.837265 6.58302 127 80 93
-1.40171 -0.936458 7.48667 83 33 38
-1.40171 -0.936458 7.48667 83 33 38
-1.74393 -1.00823 8.21751 55 42 52
-1.74393 -1.00823 8.21751 55 42 52
-2.06042 -1.03566 8.45198 72 53 69
-2.06042 -1.03566 8.45198 72 53 69
-1.39145 -0.900787 7.4088 140 84 97
-2.48792 -1.06014 8.77018 96 79 91
0.815892 -0.744598 6.18681 135 123 146
-0.989028 -0.826707 7.03125 65 26 34
-0.284208 -0.764409 6.46371 140 87 100
-1.05025 -0.819437 7.07823 66 30 37
-1.05025 -0.819437 7.07823 66 30 37
-0.82463 -0.783268 7.03141 66 31 41
-0.52022 -0.743186 6.79206 57 25 34
-0.52022 -0.743186 6.79206 57 25 34
1.62295 -0.603043 5.53636 124 105 124
-0.735632 -0.754065 6.95599 61 29 37
1.32918 -0.61572 5.79339 64 46 57
1.35607 -0.607626 5.73843 72 54 69
-2.46799 -0.863575 8.75282 57 43 53
0.681867 -0.541475 6.26382 90 62 75
0.681867 -0.541475 6.26382 90 62 75
1.68254 -0.456175 5.47161 67 49 63
1.68254 -0.456175 5.47161 67 49 63
-0.644889 -0.560688 6.87172 112 67 76
-0.820324 -0.545265 6.99834 65 33 41
-1.68724 -0.627937 8.11774 67 51 64
1.34285 -0.408217 5.73746 59 42 52
0.972482 -0.376579 6.01266 84 54 64
-2.137 -0.523388 8.44435 61 47 61
1.02883 -0.361706 5.98484 120 104 127
0.0230958 -0.390981 6.49261 53 24 30
0.980289 -0.358239 6.00728 135 114 140
-0.0481948 -0.3897 6.55494 59 28 35
-2.20846 -0.480606 8.49042 122 108 127
0.736517 -0.343183 6.18924 146 120 140
2.44632 -0.28302 5.52615 168 193 233
-1.76031 -0.363328 8.13929 73 53 64
-1.76031 -0.363328 8.13929 73 53 64
1.68357 -0.208845 5.44462 109 91 107
-0.719067 -0.24688 6.91491 39 16 15
1.36778 -0.195745 5.69461 62 48 59
1.67398 -0.182422 5.45079 131 115 133
1.15134 -0.178315 5.88742 52 44 52
0.901677 -0.16704 6.05049 71 47 62
-0.26094 -0.149828 6.49981 110 77 91
-0.260937 -0.149921 6.50014 110 77 92
-0.348798 -0.131304 6.55521 56 24 29
0.187514 -0.123056 6.36078 66 30 37
-1.23265 -0.132401 7.42427 70 27 33
-1.95941 -0.118834 8.24455 118 99 120
0.16575 -0.091035 6.36864 58 26 33
-0.920242 -0.0779849 7.00889 53 22 26
-0.919876 -0.0775665 7.00439 53 22 27
-0.0457996 -0.0718151 6.5211 63 31 41
-0.996466 -0.0733477 7.06387 52 22 29
-0.996466 -0.0733477 7.06387 52 22 29
1.6796 -0.0418595 5.42217 83 61 82
1.13844 -0.0415133 5.843 120 103 123
-0.868308 -0.0360893 6.98512 55 25 32
0.131392 -0.028368 6.37293 143 94 110
-0.262552 -0.00849144 6.5263 64 31 41
0.223862 0.0124856 6.28987 56 30 40
0.165582 0.0183425 6.35549 61 29 36
0.0684769 0.0252026 6.42961 59 25 33
1.40328 0.0230319 5.63886 134 111 126
0.255427 0.0350919 6.27301 56 27 36
-0.498438 0.0412252 6.7489 163 151 126
0.0504362 0.0514061 6.43741 61 27 34
-0.55947 0.0635223 6.70826 196 184 161
-0.559491 0.0630046 6.70857 194 182 160
1.4825 0.057629 5.60859 104 86 104
-0.587722 0.0723464 6.73007 158 146 134
-0.587573 0.0721074 6.72531 158 147 135
1.36081 0.0612014 5.67556 131 112 132
-2.15551 0.0934538 8.38968 49 38 51
-1.84701 0.10556 7.58089 148 100 115
1.1056 0.0815237 5.8528 131 114 134
-0.346519 0.0991544 6.56336 121 69 76
-1.84564 0.142213 7.57812 62 24 30
-1.24078 0.140948 7.42515 53 31 37
-1.29197 0.144716 7.48838 49 22 27
-0.0213937 0.126526 6.49462 60 25 32
2.58627 0.106787 5.51968 114 119 168
2.58627 0.106787 5.51968 114 119 168
-1.01671 0.153187 7.08007 58 25 33
0.105499 0.14034 6.35305 99 50 59
-2.22636 0.19087 8.42804 66 49 64
-0.0453388 0.153633 6.50412 59 26 34
-0.323583 0.197219 6.53394 63 26 34
-0.323569 0.197473 6.53517 64 25 34
0.084106 0.200676 6.27608 155 102 119
1.89966 0.174762 5.21795 137 115 134
-0.972263 0.250644 7.03556 62 26 37
-0.626497 0.259962 6.65257 91 69 70
0.0921115 0.265326 6.27133 75 27 32
-1.13221 0.313377 7.31741 52 22 31
0.295703 0.269502 6.22766 54 21 27
1.57933 0.244068 5.46788 63 44 58
1.49456 0.250538 5.5372 55 36 47
1.49456 0.250538 5.5372 55 36 47
1.72765 0.246062 5.35151 135 118 136
1.60245 0.255084 5.44006 136 116 134
-0.664941 0.317798 6.58672 198 189 172
1.4651 0.271757 5.56982 73 56 75
1.60351 0.274334 5.43732 87 62 74
-0.643343 0.33666 6.58196 126 110 104
-1.37308 0.411914 7.50056 51 27 35
-0.261939 0.354838 6.48439 65 28 37
-0.326626 0.359307 6.52519 70 40 52
-0.740715 0.407048 6.56774 175 168 159
1.74829 0.328104 5.3172 97 73 88
-0.521293 0.416559 6.54638 164 156 138
-0.603698 0.425593 6.56299 58 45 53
-0.297859 0.426817 6.47994 155 102 115
-0.542397 0.43504 6.55978 91 71 78
-0.483977 0.445691 6.52141 211 203 196
0.170341 0.442588 6.30734 60 24 33
-0.24637 0.457137 6.44788 133 80 90
-0.246378 0.457557 6.44736 133 80 90
-0.343673 0.465832 6.52127 130 74 83
1.48286 0.398294 5.51554 87 67 87
1.63735 0.389536 5.40192 88 65 85
1.1098 0.431636 5.82362 69 47 62
-2.94665 0.692637 8.92544 87 98 136
0.408153 0.474177 6.11918 65 26 34
0.50318 0.458497 5.88856 62 39 51
1.01362 0.457916 5.89983 123 110 131
0.883555 0.472458 5.99418 118 107 128
0.386916 0.501397 6.13096 58 26 33
2.61316 0.445743 5.4485 116 124 170
2.61316 0.445743 5.4485 116 124 170
-0.320187 0.56199 6.49267 63 24 32
-0.295047 0.565295 6.47209 130 75 87
1.21012 0.497913 5.71753 93 66 74
1.21012 0.497913 5.71753 93 66 74
-0.944136 0.618826 6.97536 129 76 89
-0.970483 0.619732 6.99756 65 24 33
-0.918768 0.620347 6.95133 55 25 34
1.31091 0.511777 5.63691 83 62 82
1.47242 0.545771 5.50406 143 116 127
1.1303 0.582439 5.77653 129 105 123
0.939216 0.604069 5.9169 74 51 65
1.59742 0.581 5.42031 66 43 57
0.408043 0.630772 5.85186 157 103 119
-2.23452 0.930884 8.3721 120 110 133
1.67009 0.635897 5.34443 89 62 76
1.50215 0.657404 5.46893 91 65 75
1.05114 0.701089 5.82961 124 120 143
-2.33883 1.02938 8.41884 16 22 47
-1.64868 0.923156 7.22089 50 36 42
-0.77384 0.842688 6.55466 126 139 183
-0.563105 0.829921 6.39401 70 40 55
-0.514384 0.826952 6.35515 68 40 54
0.881837 0.77909 5.93567 64 42 56
0.468022 0.745042 5.60268 61 33 44
-0.423293 0.842308 6.2786 48 32 41
0.233493 0.77777 5.77434 134 88 101
-0.066511 0.809103 5.99066 65 36 44
-1.83269 1.00871 7.36781 40 32 36
1.31158 0.774543 5.60947 44 40 82
2.43213 0.752469 5.41456 62 70 106
0.365502 0.793289 5.67505 64 31 41
1.16941 0.809072 5.73748 118 108 132
1.06836 0.827223 5.80149 122 107 127
-1.65394 1.03651 7.20468 58 32 37
1.04808 0.847602 5.81534 61 45 62
1.48333 0.819391 5.4829 120 107 126
-0.203927 0.915672 6.0966 58 27 34
-0.173062 0.930354 6.07388 57 34 42
-0.173062 0.930354 6.07388 57 34 42
0.512045 0.852765 5.55882 61 32 41
0.189537 0.900375 5.79178 55 34 39
1.57626 0.845564 5.39315 88 62 72
0.490681 0.873375 5.56438 72 36 44
-0.148552 0.964186 6.05469 74 45 57
-0.148552 0.964186 6.05469 74 45 57
0.221811 0.935025 5.7597 77 41 52
0.221811 0.935025 5.7597 77 41 52
0.646154 0.915399 5.61078 84 43 54
0.468849 0.913605 5.58527 84 46 57
-1.08902 1.10616 6.66364 71 49 58
1.13074 0.978083 5.72456 131 109 122
1.27071 0.977684 5.62006 134 112 128
1.73176 0.943403 5.25959 66 44 58
1.78527 0.943836 5.22132 70 51 64
1.78527 0.943836 5.22132 70 51 64
1.20021 1.03692 5.67768 126 122 145
1.80194 0.950394 5.20651 138 116 125
1.46525 1.00107 5.46902 133 120 138
1.93349 0.946166 5.0955 125 103 118
1.21907 1.05971 5.65463 82 62 76
0.165687 1.09434 5.72362 91 57 58
1.25306 1.11186 5.61513 132 116 134
1.25306 1.11186 5.61513 132 116 134
1.88605 1.03684 5.11839 94 64 70
1.88605 1.03684 5.11839 94 64 70
1.57199 1.11153 5.38692 60 47 67
0.0164506 1.1878 5.7376 63 29 37
1.05695 1.19583 5.77435 109 105 129
0.348767 1.16995 5.62687 65 32 43
1.27583 1.16562 5.6062 83 65 80
1.28613 1.16379 5.58447 84 66 82
1.43816 1.14018 5.47141 70 53 68
1.69166 1.09981 5.27069 126 104 115
-0.149881 1.15994 5.52794 78 43 57
1.2816 1.18057 5.59052 134 125 156
1.79141 1.0996 5.19648 61 51 64
1.79042 1.09928 5.19415 62 51 65
-0.347479 1.13707 5.27217 81 43 60
-0.347479 1.13707 5.27217 81 43 60
-0.674643 1.12008 5.16042 90 51 70
-0.674643 1.12008 5.16042 90 51 70
-0.268384 1.16676 5.37908 83 43 59
-1.7252 1.26542 5.68424 65 35 50
2.42301 1.19977 5.37617 89 104 133
-0.330062 1.20567 5.29443 81 44 62
-0.352206 1.23127 5.25666 87 46 63
-1.61711 1.32234 5.56789 68 43 57
-1.28875 1.29728 5.32397 81 49 67
0.222019 1.3944 5.69297 60 34 40
-0.234508 1.32904 5.40406 77 43 58
1.10416 1.4044 5.71038 101 92 110
1.10416 1.4044 5.71038 101 92 110
1.10351 1.42487 5.7208 40 32 46
1.33271 1.39017 5.5302 118 108 128
-0.597172 1.29944 5.14918 73 39 56
1.36103 1.3886 5.50464 110 104 127
-0.79602 1.29876 5.116 90 50 72
-0.79602 1.29876 5.116 90 50 72
-0.203536 1.38241 5.44776 77 40 58
1.83756 1.30419 5.13238 134 114 130
0.299218 1.43437 5.6256 66 41 48
0.299218 1.43437 5.6256 66 41 48
0.342301 1.42886 5.59624 79 38 50
1.19197 1.44229 5.62534 78 56 70
1.8295 1.32083 5.13699 68 46 61
1.43727 1.411 5.44027 84 71 104
-0.189923 1.4171 5.45365 87 46 65
1.18707 1.47094 5.61704 71 62 70
1.83841 1.34592 5.13065 54 40 56
-0.653966 1.35059 5.13306 99 57 81
1.75332 1.38412 5.19234 140 123 140
0.127088 1.52866 5.71377 85 60 68
0.0267229 1.52477 5.67391 100 68 84
-1.75952 1.52001 5.64406 103 73 94
-0.670897 1.3809 5.12447 78 44 61
-0.670897 1.3809 5.12447 78 44 61
-0.670788 1.38077 5.12357 80 46 64
0.0760487 1.53865 5.70011 141 106 126
0.291173 1.51636 5.59231 106 70 83
0.291173 1.51636 5.59231 106 70 83
-0.0591836 1.51505 5.57257 105 73 96
-0.0591836 1.51505 5.57257 105 73 96
2.27111 1.41758 5.21925 17 17 24
2.27111 1.41758 5.21925 17 17 24
-1.52627 1.50446 5.47254 108 70 91
-1.4308 1.49528 5.39408 108 70 93
-1.4308 1.49528 5.39408 108 70 93
2.26393 1.44227 5.19224 55 46 62
0.0501927 1.56569 5.6307 70 42 54
0.178405 1.56561 5.62689 71 39 48
-1.0056 1.45208 5.0864 167 120 141
-0.394149 1.46682 5.13976 115 79 98
-0.394149 1.46682 5.13976 115 79 98
-1.07666 1.46638 5.1149 108 74 93
-0.649674 1.4652 5.09934 121 80 102
-0.85026 1.46481 5.08049 126 84 109
-0.85026 1.46481 5.08049 126 84 109
-0.816131 1.46281 5.07441 125 85 107
-0.996531 1.46061 5.06033 111 66 90
-0.996531 1.46061 5.06033 111 66 90
-0.946125 1.46218 5.06085 128 81 105
-0.510425 1.50869 5.0706 97 49 61
-0.658437 1.50594 5.05242 99 54 65
-0.593176 1.50694 5.05804 109 59 75
1.09735 1.70417 5.50415 107 121 138
-1.59792 1.68338 5.30167 35 37 101
-1.50286 1.67215 5.23913 185 208 255
1.7326 1.66882 5.04073 96 83 94
1.16213 -1.9422 6.04968 71 57 76
-0.270553 -2.2606 7.1386 46 37 47
-0.410841 -2.26698 7.19772 57 99 115
-0.410841 -2.26698 7.19772 57 99 115
0.45862 -2.08947 6.63556 78 58 71
-0.798862 -2.38428 7.66284 81 61 77
-0.0803835 -2.18792 7.04085 76 53 69
0.958938 -1.93285 6.21794 85 57 71
-1.39678 -2.51186 8.09516 80 57 71
1.4602 -1.7883 5.79673 123 106 125
-0.470894 -2.2202 7.26447 25 34 43
-0.437711 -2.20775 7.22632 42 34 46
0.305638 -2.05474 6.74572 83 56 72
-0.471745 -2.18888 7.25461 166 154 127
0.615766 -1.93364 6.48614 83 55 66
-0.918781 -2.29278 7.73239 41 32 45
0.647727 -1.89898 6.47408 61 46 59
1.15535 -1.7701 6.0464 81 65 82
1.22584 -1.74773 5.99334 77 58 70
-0.920867 -2.25179 7.73456 124 113 137
1.74829 -1.55831 5.54838 51 34 50
1.74829 -1.55831 5.54838 51 34 50
0.302138 -1.88715 6.73574 87 65 83
1.44 -1.5942 5.79158 127 107 127
1.68399 -1.53619 5.60012 122 109 135
-1.56236 -2.24991 8.21423 78 61 74
1.49318 -1.55304 5.74034 121 97 115
0.694902 -1.71296 6.39086 102 72 85
1.21383 -1.60141 5.96648 128 107 126
1.49407 -1.53593 5.75844 38 28 39
1.49407 -1.53593 5.75844 38 28 39
-0.179785 -1.7293 6.58884 118 58 74
1.35646 -1.52618 5.84388 48 39 53
-0.949686 -1.84552 7.11514 53 31 40
-0.198728 -1.70249 6.56913 156 103 122
1.27003 -1.52589 5.92204 75 60 78
-0.977932 -1.82694 7.13716 54 32 40
-0.35068 -1.70044 6.71725 103 44 52
-0.35068 -1.70044 6.71725 103 44 52
-0.991662 -1.79184 7.1419 141 89 107
-0.288723 -1.66341 6.67807 64 31 39
-0.288803 -1.66411 6.67783 64 30 38
-0.132126 -1.63172 6.5606 149 94 108
1.04036 -1.51422 6.10751 74 54 68
1.35521 -1.43095 5.84223 68 49 59
1.30524 -1.42854 5.87859 77 51 62
0.922504 -1.49772 6.20695 79 58 69
1.76836 -1.331 5.50868 119 97 117
0.997749 -1.39904 6.12307 79 56 66
0.996919 -1.39819 6.11941 79 56 66
1.08736 -1.38163 6.05212 128 115 139
0.274131 -1.52282 6.69006 105 82 103
-2.37938 -2.00921 8.86656 76 59 73
-2.37938 -2.00921 8.86656 76 59 73
-4.13539 -2.20546 9.76781 136 117 132
1.24594 -1.33403 5.91216 133 121 146
1.47272 -1.30025 5.75343 68 56 74
-0.541388 -1.49478 6.68489 133 80 89
-0.541388 -1.49478 6.68489 133 80 89
-4.10664 -2.16878 9.78672 101 114 159
-4.10664 -2.16878 9.78672 101 114 159
1.4213 -1.27776 5.77293 67 55 70
0.369178 -1.45167 6.61344 92 70 87
-1.05574 -1.503 6.97964 119 66 75
-1.46626 -1.73088 8.08592 48 31 42
1.18834 -1.27287 5.96588 68 55 65
1.18877 -1.27317 5.96749 68 55 66
-0.87337 -1.46427 6.93226 135 83 96
-0.87337 -1.46427 6.93226 135 83 96
-0.547626 -1.38593 6.58607 49 24 27
0.450046 -1.35346 6.52936 150 126 140
0.576929 -1.33186 6.44231 140 123 142
-1.89459 -1.69514 8.43358 74 52 59
-1.89438 -1.6941 8.43284 73 51 57
-2.01983 -1.68342 8.5107 56 41 51
-0.892652 -1.35875 6.87523 46 23 26
1.02193 -1.18865 6.08029 81 60 68
1.02213 -1.18887 6.08116 81 59 67
-2.90012 -1.76934 9.1987 108 93 124
1.64171 -1.05819 5.57196 138 119 140
1.49761 -1.06777 5.68439 72 59 69
1.17405 -1.06154 5.94324 83 56 67
1.17405 -1.06154 5.94324 83 56 67
-0.476047 -1.17718 6.66823 128 75 92
1.02475 -1.06215 6.07368 63 48 58
1.02595 -1.06254 6.07867 61 46 56
1.01905 -1.02379 6.0927 53 35 45
2.34716 -0.897988 5.5705 30 30 49
-0.285431 -1.032 6.43689 135 89 107
0.58508 -1.02316 6.39285 137 113 130
-1.17473 -1.15881 7.34059 66 28 33
1.61559 -0.881463 5.5754 80 57 70
1.61559 -0.881463 5.5754 80 57 70
0.531367 -1.01002 6.44329 145 120 137
0.576276 -1.0013 6.40432 94 63 72
-1.09642 -1.06136 7.12525 113 68 81
-0.422993 -0.978811 6.57161 47 21 27
-1.21824 -1.06623 7.34614 60 28 33
-0.376658 -0.943325 6.5157 120 71 86
-0.350059 -0.936137 6.50174 60 28 33
-0.954593 -0.942261 6.95587 128 82 97
-0.404838 -0.888427 6.54596 131 84 97
-0.329782 -0.875077 6.52726 70 32 36
-0.329782 -0.875077 6.52726 70 32 36
-0.262847 -0.871101 6.51133 58 22 25
-1.03511 -0.896668 7.01353 100 61 75
-0.240102 -0.817414 6.54218 64 24 30
-0.944425 -0.868937 7.00629 53 21 24
-1.70539 -0.928297 8.1855 72 53 67
-1.78216 -0.921003 8.22458 72 53 64
-0.255311 -0.722042 6.4888 46 19 23
-0.943229 -0.7727 6.99294 56 23 28
-0.88931 -0.763456 7.05608 57 22 23
-1.38835 -0.762502 7.41112 97 56 64
-0.907943 -0.664084 6.99773 51 21 25
0.868734 -0.55929 6.12594 69 45 54
-0.612299 -0.570071 6.84755 49 21 22
-0.551927 -0.561549 6.79732 47 20 20
1.62032 -0.437797 5.52651 73 50 61
-0.703381 -0.530968 6.91235 111 62 69
1.2094 -0.444897 5.84456 126 102 122
1.42795 -0.419669 5.66902 82 57 65
1.14136 -0.397141 5.90796 65 44 55
1.01124 -0.374914 6.0021 50 33 40
1.91874 -0.315454 5.26176 85 61 74
-0.780469 -0.411355 6.97086 110 67 82
1.41591 -0.329851 5.66729 77 56 64
-0.0394802 -0.339531 6.55716 59 28 31
-0.873051 -0.300001 6.90059 52 23 26
1.7118 -0.225063 5.4301 31 23 31
-0.901188 -0.276128 6.88968 104 68 81
1.5474 -0.220408 5.54952 67 41 46
1.61538 -0.218109 5.50159 58 40 48
0.10512 -0.201951 6.35051 50 22 28
1.08959 -0.179544 5.90993 66 42 51
1.37524 -0.175097 5.68144 131 113 133
0.961903 -0.140917 6.0076 138 120 137
2.5645 -0.103379 5.55505 163 177 221
-1.94078 -0.137431 8.25365 50 37 46
-1.94078 -0.137127 8.25373 50 37 46
-0.909714 -0.104269 7.00395 100 73 92
-0.8917 -0.0843539 7.00121 53 21 24
-0.8917 -0.0843539 7.00121 53 21 24
-1.23866 -0.0840315 7.37978 54 22 25
-1.21134 -0.0692883 7.37622 117 68 77
0.481418 -0.0569239 5.79239 58 23 26
1.68843 -0.0226051 5.41309 126 109 129
1.68843 -0.0226051 5.41309 126 109 129
1.74479 0.0127103 5.36775 63 47 59
1.42388 0.0349357 5.61503 62 43 48
1.53256 0.0402958 5.53996 66 48 59
-0.620237 0.0965086 6.69645 95 75 72
-1.16118 0.134249 7.39538 55 27 35
2.4312 0.110366 5.49128 68 71 105
0.61804 0.128352 5.84777 65 30 33
0.182958 0.162727 6.30291 81 40 51
0.185544 0.188765 6.28363 138 85 100
1.9225 0.163225 5.19611 129 103 121
-1.18517 0.24531 7.36376 85 42 53
0.205565 0.207904 6.2833 70 33 43
-0.585956 0.246186 6.76161 180 166 133
0.205505 0.259632 6.28301 46 18 23
1.06716 0.244575 5.87667 74 58 74
1.06716 0.244575 5.87667 74 58 74
-0.969464 0.331259 7.04072 67 32 43
-1.12744 0.368254 7.31746 40 16 21
-2.19352 0.452398 8.38953 59 45 59
-1.44135 0.420996 7.56262 50 23 29
-1.44135 0.420996 7.56262 50 23 29
1.68969 0.298364 5.37518 142 123 140
1.7059 0.310943 5.35786 76 60 80
1.7059 0.310943 5.35786 76 60 80
-0.630767 0.396139 6.55871 120 109 116
-0.630455 0.428264 6.5447 163 154 142
0.192685 0.413378 6.29799 62 27 33
1.41563 0.370503 5.57141 81 66 84
-0.652763 0.438779 6.54691 38 22 20
-2.17559 0.597936 8.3509 60 49 61
-0.612916 0.469236 6.54157 54 36 35
1.08954 0.428555 5.83781 79 61 76
0.485543 0.444521 5.91024 145 102 120
1.0881 0.452002 5.82986 124 112 136
-3.4157 0.716565 9.14541 31 48 80
0.0526173 0.512395 6.38532 69 32 40
-0.268363 0.559639 6.45115 62 26 33
1.4059 0.553682 5.55375 138 116 132
1.55372 0.553667 5.45213 87 60 68
1.28719 0.596488 5.66399 59 44 58
0.879254 0.65061 5.97734 128 119 143
1.02496 0.644826 5.84048 149 123 137
1.0257 0.645314 5.84355 149 123 137
1.33072 0.620415 5.60348 128 105 123
1.59877 0.599107 5.41848 125 110 129
-2.3688 0.937486 8.4391 23 26 46
-2.40078 0.96799 8.46118 156 174 242
0.885777 0.715375 5.94816 87 56 66
-0.204653 0.674668 5.14792 60 40 50
0.157212 0.770859 5.83503 60 34 39
-0.787771 0.867943 6.54976 78 44 57
-0.256098 0.825209 6.15793 137 93 111
-0.141191 0.816139 6.06734 130 84 100
0.297221 0.778788 5.71324 47 28 30
0.465624 0.766405 5.59321 134 89 107
-0.380525 0.856054 6.24449 135 91 109
1.15317 0.79247 5.74622 132 129 150
1.17799 0.790482 5.73548 67 47 55
1.17799 0.790482 5.73548 67 47 55
-0.0232031 0.829714 5.97263 134 85 99
-0.0183843 0.853455 5.97988 56 41 46
1.06463 0.869263 5.80918 118 111 136
1.44914 0.852434 5.49192 75 57 77
0.105685 0.940782 5.85778 91 49 60
0.105685 0.940782 5.85778 91 49 60
-0.728387 1.08102 6.38916 52 42 51
-0.603844 0.92528 5.28907 63 47 57
1.68007 0.927554 5.30041 135 114 130
1.28939 0.99536 5.60621 66 49 65
1.55604 0.968445 5.40063 68 54 66
1.30007 1.01217 5.59114 140 130 154
1.54342 0.984259 5.40903 126 114 133
0.91972 1.0744 5.86224 68 37 45
1.59539 0.981585 5.36775 127 113 130
1.56159 0.99076 5.38942 132 113 126
0.0441381 1.09355 5.74818 100 59 66
2.43075 1.03541 5.38022 63 71 107
1.59489 1.12479 5.35367 67 48 58
2.46617 1.12885 5.3498 150 172 213
1.68659 1.1187 5.27859 65 47 53
1.932 1.12306 5.07236 125 102 116
2.42973 1.19324 5.29348 121 144 180
1.33398 1.36974 5.52196 60 44 53
1.361 1.36895 5.50112 73 53 64
1.4393 1.36529 5.42499 48 34 44
1.68717 1.31959 5.24812 138 121 141
1.14518 1.43237 5.67619 60 43 54
1.09701 1.44623 5.7091 107 102 137
0.90425 1.48765 5.84225 54 47 64
1.43781 1.3899 5.4443 103 98 124
1.78016 1.34624 5.17448 52 31 43
1.80421 1.33971 5.15526 64 45 56
1.53232 1.40151 5.36263 133 116 133
1.55562 1.40107 5.34644 128 104 120
1.58766 1.39378 5.32747 123 105 120
-0.571954 1.35011 5.14602 91 58 78
-0.745581 1.35083 5.12197 88 53 73
1.36637 1.4562 5.47882 93 70 87
0.0920312 1.5317 5.74789 66 44 59
0.0922025 1.53212 5.74991 66 44 57
1.70292 1.42139 5.21595 80 63 75
0.14644 1.56878 5.65574 62 34 39
-1.7385 1.56112 5.58024 61 35 49
0.0151884 1.56539 5.59809 84 53 66
-1.52347 1.66796 5.28648 66 70 101
1.76609 1.6404 5.01569 150 171 236
1.87741 1.67388 4.90684 63 62 67
1.94452 1.66251 4.86961 84 81 85
1.69649 -1.79442 5.62235 56 41 54
-0.202551 -2.27478 7.15644 124 105 132
2.3386 -1.71823 5.70837 58 48 73
0.0605888 -2.07208 6.93198 92 73 90
0.0606245 -2.07225 6.93255 92 72 90
-2.86854 -2.69337 9.27691 120 97 120
-0.373412 -1.86582 6.65524 64 38 48
0.059205 -1.85842 6.8973 91 60 73
0.059205 -1.85842 6.8973 91 60 73
-0.760014 -1.85742 6.98609 69 23 25
-0.426304 -1.81395 6.808 92 43 49
-2.87164 -2.45136 9.24665 106 91 116
-1.42994 -2.08377 8.09694 81 59 71
-1.42994 -2.08377 8.09694 81 59 71
0.186373 -1.72818 6.78956 101 70 85
-0.777373 -1.70807 6.76918 72 33 38
2.44991 -1.41049 5.66379 148 173 214
-0.728621 -1.66211 6.74525 121 66 74
1.43288 -1.41155 5.77867 127 115 143
1.13359 -1.4178 6.01909 65 47 58
-0.46673 -1.52461 6.59452 49 21 27
-0.46673 -1.52461 6.59452 49 21 27
-0.15231 -1.42601 6.38354 98 55 62
0.0864544 -1.42608 6.43051 107 68 80
1.33118 -1.2918 5.84406 61 41 50
1.25143 -1.26152 5.91329 123 101 121
0.62234 -1.36371 6.40253 92 70 78
0.592286 -1.36332 6.43812 83 56 63
0.255134 -1.37968 6.64953 36 21 25
1.33938 -1.20439 5.81218 55 43 57
-2.88203 -1.89149 9.18735 111 96 120
1.10017 -1.20251 6.01661 87 63 72
1.69861 -1.08335 5.51428 81 72 87
-2.15765 -1.68493 8.62401 63 42 49
1.45768 -1.06233 5.71537 52 40 52
-1.37977 -1.35381 7.36216 67 34 37
1.37188 -1.05347 5.77686 66 54 66
-0.326851 -1.18901 6.5575 132 83 100
1.43532 -1.03769 5.73712 139 116 129
1.24694 -1.03792 5.89175 137 120 136
-0.520661 -1.17493 6.69208 128 79 94
-0.218637 -1.14583 6.54809 51 21 21
0.415278 -1.1375 6.53652 88 60 72
-0.297068 -1.1211 6.46377 111 65 79
-0.297168 -1.12002 6.45672 112 67 80
-0.736324 -1.15565 6.86789 130 79 96
-1.05186 -1.13073 7.11006 119 69 84
0.0924426 -0.974599 6.20105 57 27 33
-2.02511 -1.23523 8.4871 64 46 56
-0.223415 -0.914923 6.54719 55 25 25
0.976056 -0.798487 6.07442 64 45 56
-1.01148 -0.884105 7.03029 62 29 37
-2.90529 -1.13418 9.12774 123 106 130
0.0882446 -0.785897 6.34439 55 28 33
0.0882446 -0.785897 6.34439 55 28 33
-0.336928 -0.789688 6.44805 150 96 113
0.519974 -0.749795 6.43307 70 48 59
0.52072 -0.750045 6.43824 68 46 57
0.760333 -0.722663 6.23031 139 116 137
-0.962431 -0.798082 6.98907 124 73 89
-1.43677 -0.837911 7.38946 57 24 27
1.59915 -0.617228 5.5569 53 36 41
1.66117 -0.603932 5.50013 126 104 121
1.58626 -0.590955 5.56274 121 98 118
1.22361 -0.424852 5.84262 57 44 55
0.868095 -0.361244 6.1276 139 121 143
0.784756 -0.35916 6.17879 77 53 61
-0.222764 -0.354467 6.39992 55 23 24
-0.254756 -0.329782 6.38918 108 71 88
-2.58234 -0.445847 8.77566 127 110 133
-2.91089 -0.337106 9.01978 112 92 113
1.18216 -0.195754 5.8607 52 36 42
1.18216 -0.195754 5.8607 52 36 42
1.32428 -0.193076 5.72194 64 44 49
0.875144 -0.169497 6.07063 82 55 70
0.874035 -0.169085 6.06524 83 55 71
0.954018 -0.165004 6.02921 57 43 49
0.954018 -0.165004 6.02921 57 43 49
-0.314373 -0.126588 6.53805 108 80 101
1.65888 -0.0104124 5.43047 138 121 136
1.65888 -0.0104124 5.43047 138 121 136
0.12731 -0.00103733 6.38317 87 40 43
1.1286 0.012855 5.84858 132 112 132
-0.590078 0.0398193 6.81344 44 24 11
0.943879 0.0482499 5.98782 116 100 127
-0.716406 0.258093 6.71411 76 38 39
-0.720098 0.287971 6.62358 185 182 191
1.70862 0.238383 5.37395 51 40 49
1.84232 0.235413 5.25426 129 108 124
-0.696327 0.326169 6.59045 93 83 83
1.44761 0.289679 5.57711 135 113 132
-0.768219 0.352114 6.58519 177 175 181
-0.645908 0.364862 6.57937 219 216 201
-0.645908 0.364862 6.57937 219 216 201
-0.724278 0.449277 6.59391 60 40 32
-0.0281731 0.504061 6.43603 59 28 34
-0.407436 0.532021 6.54998 73 32 32
-2.93694 0.788326 8.91706 103 87 107
0.560621 0.510576 5.81617 68 33 36
1.15617 0.513616 5.76628 91 65 72
1.18763 0.526268 5.72956 126 111 130
1.74143 0.523483 5.29976 146 118 132
1.33342 0.570626 5.61488 133 106 119
1.18714 0.6118 5.75735 53 42 51
-1.20912 0.836685 7.00443 102 58 70
-1.20912 0.836685 7.00443 102 58 70
-1.68073 0.897044 7.24279 130 84 104
-1.62566 0.894667 7.22756 131 84 105
-1.62566 0.894667 7.22756 131 84 105
-0.163062 0.803158 6.08201 53 38 45
0.27225 0.763379 5.74885 136 89 107
0.629862 0.745856 5.60689 43 30 34
-0.470531 0.854588 6.32086 51 45 50
0.931454 0.85247 5.91459 125 123 146
1.44299 0.902087 5.47797 73 64 81
-1.03541 1.11017 6.62266 62 48 55
1.27067 0.953024 5.6306 106 80 88
1.05473 0.994953 5.79489 125 122 143
1.05473 0.994953 5.79489 125 122 143
0.0960813 1.01023 5.74564 86 54 57
1.59553 0.959988 5.37303 64 45 57
1.59553 0.959988 5.37303 64 45 57
0.12423 1.03593 5.73445 120 69 80
1.28063 1.01953 5.61018 141 126 151
-0.409169 1.02454 5.16567 123 75 88
-0.586301 1.01918 5.12664 122 74 84
-0.900661 1.02042 5.10638 125 77 91
1.17963 1.15529 5.68602 79 63 81
1.3746 1.1536 5.51957 63 47 63
1.26407 1.18214 5.60321 132 121 152
1.37088 1.17907 5.50821 129 112 132
1.04624 1.24357 5.7684 120 113 139
2.44412 1.21614 5.28344 32 41 76
2.44412 1.21614 5.28344 32 41 76
-1.72413 1.33708 5.66574 75 49 67
-1.72413 1.33708 5.66574 75 49 67
1.19499 1.3547 5.62961 120 98 120
0.200382 1.39419 5.70998 115 63 75
1.20404 1.38778 5.64446 50 38 49
1.20404 1.38778 5.64446 50 38 49
1.30196 1.36286 5.53521 52 34 47
1.0678 1.43762 5.72911 117 107 140
1.31572 1.39467 5.54012 124 108 133
2.23685 1.36698 5.32543 73 73 90
1.71055 1.40095 5.22171 138 127 152
2.43899 1.42685 5.31669 76 99 130
0.118365 1.54513 5.6904 146 104 124
0.887361 1.58539 5.72727 60 57 68
0.935998 1.58328 5.68993 55 52 66
0.151154 1.66152 5.63705 45 39 42
-1.09249 1.5075 5.07694 80 46 51
-0.933763 1.50304 5.01949 83 49 59
2.00594 1.46927 4.87065 139 131 150
-0.0164925 -2.03449 6.98908 101 83 102
0.412925 -1.86911 6.6229 88 77 98
1.71452 -1.55096 5.59093 62 53 66
0.498542 -1.78794 6.54646 102 68 75
0.498542 -1.78794 6.54646 102 68 75
-0.468898 -1.73755 6.81907 79 34 44
-0.856682 -1.76543 6.99406 117 75 97
1.19623 -1.2363 5.94869 126 107 126
1.1117 -1.204 5.98212 85 63 71
1.54329 -1.06241 5.65228 54 42 52
1.54326 -1.06246 5.65222 54 42 52
1.50988 -1.04029 5.67269 132 107 120
1.24491 -1.06715 5.8936 75 59 70
-2.88535 -1.45504 9.148 117 96 122
-0.454086 -1.01273 6.58134 122 68 82
1.32061 -0.830849 5.80424 59 41 48
0.874648 -0.798086 6.16085 99 79 90
1.06919 -0.612517 5.98331 55 50 61
1.06919 -0.612517 5.98331 55 50 61
-2.89757 -0.846392 9.07242 108 89 113
1.37838 -0.387066 5.70793 135 118 137
-0.759199 -0.445502 6.96946 53 23 22
-2.90965 -0.498153 9.05074 99 82 101
-0.564959 -0.17034 6.80619 61 33 32
-2.9134 0.0194706 8.99293 103 88 120
1.24639 0.031878 5.75843 93 78 91
-1.79948 0.0699871 7.58425 146 94 115
0.972297 0.0711215 5.96326 79 61 72
1.05865 0.0719999 5.89412 61 42 47
0.917188 0.0743999 6.01778 65 50 63
0.971849 0.106655 5.96038 134 116 137
1.02746 0.108197 5.91009 132 114 138
-0.389856 0.252304 6.58181 131 77 89
-2.10688 0.381779 8.31098 118 106 127
0.581993 0.273741 5.81993 142 93 110
-0.0299976 0.314089 6.45332 72 40 50
-0.594156 0.350068 6.59712 132 111 104
-0.565923 0.461813 6.55314 128 114 134
-1.41526 0.566657 7.51991 49 19 21
-0.544846 0.500663 6.55294 32 20 24
1.63639 0.547491 5.38226 130 104 118
1.50367 0.581747 5.49288 67 48 55
-1.70794 0.841224 7.4063 149 97 112
-1.89389 0.893304 7.56245 74 54 51
-1.74081 0.877674 7.41734 72 49 53
-0.099211 0.758868 6.31216 68 51 59
0.371246 0.708882 5.80713 84 54 57
0.188954 0.738617 5.82365 138 88 109
-0.727464 0.831309 6.51201 126 141 192
0.192821 0.774185 5.80387 65 49 57
1.08693 0.898624 5.76733 142 125 144
1.23495 1.02346 5.64519 137 121 147
1.49957 1.0035 5.44182 125 112 137
-0.376464 1.05968 5.22178 70 35 39
1.7839 1.10027 5.19545 74 61 77
1.12626 1.28577 5.68504 75 56 75
1.15102 1.30794 5.66856 117 93 114
1.02987 1.3625 5.76598 41 27 32
1.15007 1.40081 5.67744 120 115 138
1.15007 1.40081 5.67744 120 115 138
1.28596 1.39758 5.56727 136 112 133
1.814 1.30174 5.1474 123 102 121
-0.55617 1.32962 5.1534 148 103 125
1.3805 1.42478 5.47892 123 107 137
1.49874 1.40998 5.39471 135 117 139
1.47036 1.41871 5.41529 145 123 139
-1.65385 1.55707 5.51123 68 41 52
1.42241 1.5506 5.29515 76 66 83
-1.02039 1.5 5.01878 73 40 49
1.74763 1.53963 5.04108 12 16 27
1.89037 1.52881 4.92357 164 185 253
1.86476 1.64524 4.94281 16 21 36
1.02935 -1.95483 6.16753 73 53 68
-1.9077 -2.64524 8.50691 80 67 80
-1.9077 -2.64524 8.50691 80 67 80
0.913651 -1.77039 6.22954 87 64 77
-0.465819 -1.80021 6.85219 143 88 108
-0.0210729 -1.47608 6.31842 38 27 24
0.467578 -1.42882 6.51344 116 104 121
-0.632678 -1.36132 6.68368 45 23 25
-0.863582 -1.34097 6.86275 43 21 22
-0.98026 -1.33152 6.95699 43 21 21
-1.10484 -1.32461 7.06536 42 20 23
-2.87177 -1.68849 9.1643 108 88 115
0.168823 -0.780722 6.28308 59 24 23
-1.28151 -0.662151 7.41641 46 24 26
-1.28151 -0.662151 7.41641 46 24 26
-0.788009 -0.377496 6.99067 50 23 26
-0.549231 -0.311096 6.80005 29 13 14
1.12608 -0.141539 5.87151 143 121 142
0.998969 -0.142223 5.96611 143 126 145
-2.91663 -0.0842901 9.03499 115 93 112
-0.647787 -0.0384083 6.79782 80 48 28
0.553303 0.171109 5.87779 47 20 22
-1.75355 0.369451 7.67828 45 22 23
-2.03444 0.418202 8.29664 65 50 63
-2.97468 0.650039 8.89779 155 172 219
-1.7613 0.690781 7.60367 104 70 82
-1.76285 0.691297 7.61207 105 71 84
-2.39492 0.873632 8.47885 162 178 249
1.178 0.649404 5.72713 131 108 125
0.306522 0.700838 5.83291 84 55 65
-1.74864 0.910262 7.25499 123 80 95
-1.55299 0.897984 7.1677 132 87 107
-0.194325 0.777257 6.22196 152 105 125
0.500757 0.748849 5.56492 53 42 44
-1.60094 0.999908 7.17289 128 81 95
-1.60094 0.999908 7.17289 128 81 95
-1.60094 0.999908 7.17289 128 81 95
-0.658467 1.0891 6.32961 63 48 57
0.493305 1.10188 5.51448 40 25 23
0.492547 1.10085 5.5097 39 24 22
-3.50586 1.92162 8.88406 110 99 121
0.209708 1.26781 5.71844 50 41 42
0.97457 1.37001 5.81418 60 43 54
1.27507 1.32759 5.57579 129 108 128
0.96596 1.41892 5.84041 116 100 126
1.60704 1.33256 5.30867 137 114 130
1.72151 1.36886 5.22365 59 52 62
1.99464 1.50609 4.86573 61 58 74
1.92692 1.65131 4.88285 10 15 21
-2.85398 -2.02097 9.17922 124 98 113
-0.402695 -1.38263 6.51293 43 23 23
-0.519394 -1.37255 6.59889 45 22 26
1.03103 -1.03855 6.06805 77 67 78
-0.644375 -0.81952 6.83045 133 87 105
-0.644375 -0.81952 6.83045 133 87 105
-0.623932 -0.743287 6.87007 63 29 28
-0.271857 -0.664797 6.50272 29 12 13
-0.271857 -0.664797 6.50272 29 12 13
-0.919797 -0.614188 7.03153 27 14 14
1.39297 -0.426565 5.70284 93 65 74
-0.0160152 -0.445028 6.55993 79 41 44
0.128279 -0.168669 6.4054 66 27 28
0.128279 -0.168669 6.4054 66 27 28
0.528265 0.0736005 5.97668 35 22 22
-0.579928 0.179252 6.7968 58 29 12
-1.73451 0.241737 7.62612 42 18 17
-1.73451 0.241737 7.62612 42 18 17
1.67405 0.280573 5.37922 116 100 121
1.69315 0.354568 5.3252 79 61 74
-0.845592 1.10857 6.47458 66 50 57
1.40235 1.37529 5.47206 78 64 84
1.83416 1.63474 4.95381 13 20 32
-2.81356 -2.61692 9.19577 111 87 107
-0.337991 -1.79471 6.69135 96 41 44
-0.172025 -1.54099 6.51373 148 91 112
-4.10658 -2.22194 9.74016 91 71 86
-0.615069 -0.254304 6.80033 134 116 91
-0.68502 0.0641892 6.74464 187 174 156
0.342282 0.418126 6.2095 63 31 35
-1.19527 1.14508 6.74787 75 50 61
-1.19527 1.14508 6.74787 75 50 61
2.43959 1.23112 5.3504 29 53 94
-0.888538 1.34437 5.0913 112 78 102
-0.774513 -1.62994 6.84824 52 24 25
-0.113779 -0.989706 6.53533 25 14 15
-0.360141 -0.562321 6.49879 67 31 32
-2.85033 -0.489698 9.0023 102 82 96
0.124015 0.318782 6.35885 80 32 31
-3.38697 0.936259 9.14394 32 38 57
1.37001 0.668288 5.58832 114 86 101
1.37669 0.670531 5.60954 117 89 103
1.88361 1.58212 4.92 157 176 248
-0.338649 -1.21029 6.47486 109 65 79
0.00449643 -0.943408 6.38962 137 84 101
-0.54741 -0.939957 6.61196 60 30 30
-0.54741 -0.939957 6.61196 60 30 30
0.146457 -0.908546 6.30298 96 58 70
0.146457 -0.908546 6.30298 96 58 70
-0.875009 -0.380097 7.01852 122 63 71
-0.840758 -0.930329 6.97557 46 22 23
-0.840758 -0.930329 6.97557 46 22 23
-0.240448 -0.427171 6.46588 125 68 80
0.185507 -0.407985 6.27069 56 28 30
0.405836 -0.0644023 5.9996 133 86 104
0.487085 1.0715 5.47946 85 45 46
-0.934587 1.45412 5.0791 174 127 152
0.0868044 1.63007 5.61271 55 45 50
0.35641 0.948562 5.63618 143 88 108
-1.04231 1.0324 5.14344 100 60 68
-1.04231 1.0324 5.14344 100 60 68
0.320599 -0.799098 6.41338 71 31 31
-3.61106 1.67862 8.85766 136 152 195
1.29037 -2.00866 5.96744 119 114 140
-1.70763 -0.75973 8.14855 64 42 59
1.64685 -1.7828 5.6584 73 47 70
-1.16559 -2.31043 7.90996 90 69 92
0.516881 -1.89657 6.55298 96 66 85
1.0345 -1.72206 6.13433 94 66 87
1.40517 -1.50892 5.80894 96 70 95
1.40517 -1.50892 5.80894 96 70 95
1.70812 -1.08007 5.52156 56 46 66
-2.8173 -1.61162 9.11136 77 60 86
-2.60365 -1.42871 8.91709 138 113 127
-0.572962 0.217997 6.77079 98 76 53
-2.83681 0.660592 8.8438 74 65 91
-2.331 0.965556 8.42037 49 45 78
-3.06687 1.77517 6.35729 118 136 148
1.85983 -1.91756 5.49769 82 63 83
1.05453 -2.02808 6.14544 88 66 93
1.32733 -1.95614 5.93477 116 106 129
1.28817 -1.94413 5.95968 72 58 83
0.806684 -2.06721 6.34586 100 77 100
0.806684 -2.06721 6.34586 100 77 100
1.79994 -1.79239 5.53032 72 57 79
0.981678 -1.93337 6.19935 80 58 75
0.56075 -1.94365 6.52925 77 60 86
0.56075 -1.94365 6.52925 77 60 86
0.149068 -1.85486 6.84444 133 115 132
0.411452 -1.76613 6.62227 57 39 62
-1.59301 -2.18974 8.24236 69 53 73
-1.59301 -2.18974 8.24236 69 53 73
1.77888 -1.36103 5.48909 98 70 90
1.32877 -1.43783 5.86271 139 112 126
0.515737 -1.56031 6.51114 83 67 88
0.456558 -1.32749 6.52578 93 65 81
1.7143 -1.0933 5.5127 62 49 65
0.573047 -1.22815 6.43544 87 54 70
-2.56391 -1.41715 8.88235 64 48 67
-2.93433 -1.39643 9.15601 170 189 236
-1.74941 -1.25754 8.2362 77 54 72
-3.29845 -1.16959 9.36783 24 38 85
-1.99483 -0.98566 8.39151 49 36 51
0.583848 -0.743567 6.3665 83 53 71
-0.651167 -0.672254 6.86955 73 35 46
1.35097 0.0741889 5.6678 71 50 69
-0.55555 0.407891 6.60216 164 154 143
-3.34065 0.692094 9.1695 95 104 145
1.25711 0.490424 5.68367 155 128 141
-2.68706 0.824155 8.70822 77 61 80
-2.68706 0.824155 8.70822 77 61 80
-3.34459 0.909534 9.14061 94 105 140
-2.3424 0.952283 8.42057 106 105 143
-3.35012 1.09007 9.11757 94 104 138
-2.4694 1.14824 8.49474 120 110 133
1.73229 0.775043 5.27819 132 109 122
1.73308 0.786243 5.28309 75 51 66
1.2579 1.01328 5.61571 142 131 156
1.61869 0.975899 5.35331 85 61 78
1.0128 1.18309 5.7946 124 114 137
-3.41147 1.98817 8.77763 77 83 96
1.93796 1.34662 5.04031 118 105 124
1.75479 -1.96897 5.59839 66 48 69
1.63776 -1.96717 5.68582 133 112 136
1.09403 -2.04768 6.1174 170 161 189
1.04935 -2.05905 6.16287 78 54 79
1.43281 -1.94679 5.84992 128 113 137
1.90385 -1.80509 5.45008 75 61 85
1.03736 -1.93543 6.16037 72 50 74
1.59955 -1.77762 5.69308 59 45 67
0.543226 -1.88069 6.51703 139 121 140
2.41903 -1.53762 5.66887 89 104 131
1.55352 -1.544 5.70038 58 41 60
-2.2058 -2.27755 8.72226 72 49 60
1.01729 -1.60065 6.13596 76 57 80
0.709084 -1.61241 6.36619 101 75 94
-2.09703 -2.16762 8.62829 67 54 73
1.88244 -1.32625 5.41011 72 51 76
1.45222 -1.38025 5.76936 52 42 62
0.796772 -1.36952 6.27101 84 55 69
-2.5911 -1.79892 8.94727 71 56 71
1.44346 -1.07869 5.72273 117 98 112
1.65715 -0.895361 5.54633 76 54 75
1.65715 -0.895361 5.54633 76 54 75
-2.68238 -1.40829 8.98137 71 54 73
1.22771 -0.824753 5.87583 82 53 65
-3.31793 -1.18596 9.37075 103 116 155
-2.68236 -0.926752 8.92422 74 55 72
-0.582785 -0.567065 6.82235 108 65 71
-2.0849 -0.339688 8.40024 60 42 54
-3.32571 -0.36164 9.28623 102 113 155
-3.30373 -0.342598 9.28128 23 31 76
1.15618 -0.122106 5.84315 70 52 71
-2.40748 -0.0882752 8.61507 59 50 75
1.35818 0.0445069 5.67242 84 57 69
1.35818 0.0445069 5.67242 84 57 69
-2.6842 0.106489 8.80239 112 98 124
-2.42101 0.210406 8.58789 60 47 65
-2.42101 0.210406 8.58789 60 47 65
1.81398 0.36317 5.26686 146 127 140
-0.412362 0.494694 6.56356 62 34 36
0.541396 0.484803 5.82899 53 28 35
1.54945 0.573956 5.46196 126 103 118
1.13353 0.614723 5.78244 125 108 126
0.944717 0.644696 5.92311 128 120 143
0.955158 0.723894 5.89829 130 120 138
