ply
format ascii 1.0
element vertex 513
property float x
property float y
property float z
property uchar diffuse_red
property uchar diffuse_green
property uchar diffuse_blue
end_header
-0.605613 -0.857795 -7.59317 0 6 21
0.748271 -2.1297 5.06646 37 24 23
0.35794 -1.75288 4.43594 92 84 81
0.418567 -1.38868 4.41363 137 128 122
0.485565 -1.36226 4.48741 158 150 145
0.658365 -1.29941 4.68908 148 139 134
0.550834 -1.24652 4.53095 139 132 123
0.618746 -1.26977 4.63153 129 121 116
0.624504 -1.17149 4.56458 137 124 105
0.322372 -0.916795 4.15394 42 40 38
0.527795 -0.71882 4.33947 156 147 141
0.543114 -0.674733 4.34088 162 152 148
0.494459 -0.558322 4.25965 166 158 160
0.671472 -0.590966 4.49789 152 149 155
0.686409 -0.350564 4.42541 136 141 147
0.687505 -0.351485 4.46079 145 150 157
0.735475 -0.215353 4.47618 104 108 115
0.668625 -0.194994 4.36531 81 75 70
0.910056 0.230418 4.5128 79 72 67
1.57367 0.379539 5.34815 118 112 109
1.74595 1.5959 5.095 43 39 34
-0.186384 1.35923 3.8509 81 77 67
1.15504 -1.88059 -4.29106 14 16 11
0.407339 -2.23708 4.63087 43 33 26
0.595412 -2.09258 4.85437 127 125 121
0.680617 -1.65563 4.82094 142 136 137
0.373886 -1.21945 4.30669 141 139 141
0.454395 -1.10611 4.37164 141 133 127
57390.7 -126334 509256 182 177 177
0.429413 -0.807314 4.24261 30 23 17
0.700449 -0.799773 4.59552 148 142 142
0.428624 -0.674857 4.21747 163 161 163
0.484369 -0.402641 4.53174 144 144 148
0.415614 -0.58992 4.16614 154 149 148
0.568101 -0.535722 4.36766 145 143 148
0.506507 -0.513933 4.25812 145 138 136
0.620388 -0.474997 4.39323 153 153 158
0.544974 -0.406478 4.29601 147 147 153
0.544399 -0.406514 4.27412 131 131 134
0.466007 -0.391278 4.168 148 144 145
0.597893 -0.383284 4.34716 151 151 155
0.635673 -0.372789 4.3794 143 146 153
0.411992 -0.303669 4.08727 160 158 162
0.411849 -0.304136 4.0805 143 139 142
0.46764 -0.233724 4.13754 144 140 142
0.491668 -0.179369 4.14615 136 134 133
0.591204 -0.16947 4.26539 85 82 80
0.53138 -0.163832 4.18872 123 121 125
0.569687 -0.149536 4.23038 132 131 132
0.438504 -0.102225 4.01194 60 50 36
0.580337 -0.0954817 4.23716 72 68 65
0.533093 -0.0660706 4.10772 50 44 36
0.636381 0.309545 4.18704 31 29 19
0.644006 0.336558 4.18839 95 93 85
1.42822 0.595851 5.07557 144 138 136
1.76786 1.41612 5.15276 100 104 103
0.592013 1.11768 3.91353 78 78 71
1.09668 1.53319 4.42666 15 13 9
0.54747 -2.18073 4.78477 41 32 25
0.625058 -2.01686 4.8522 139 131 132
0.714197 -1.71857 4.87915 90 81 81
0.712951 -1.54928 4.83771 117 109 109
0.424532 -0.757604 4.23134 141 135 132
0.574633 -0.621387 4.3734 157 154 159
0.442297 -0.474454 4.17353 82 71 66
0.621836 -0.471062 4.38005 137 136 142
0.602451 -0.337884 4.34992 145 147 154
0.318255 -0.300308 3.97251 63 63 69
0.63063 -0.278292 4.33636 128 132 141
0.422444 -0.203132 4.06955 132 125 124
0.422477 -0.203524 4.06938 129 122 121
0.626967 -0.129864 4.31328 124 126 130
0.539634 -0.00587291 4.14603 120 118 118
0.591142 0.0112944 4.22734 130 132 137
0.706549 0.0518264 4.33988 114 116 119
1.3299 0.117533 5.07701 138 125 119
0.469397 0.509513 3.91761 128 128 124
1.11855 0.448346 3.01226 104 107 100
1.74466 1.43516 5.14951 51 50 45
-0.530926 1.14103 3.62415 111 124 134
-0.56705 1.13479 3.51587 37 33 27
-0.56705 1.13479 3.51587 37 33 27
-0.52884 1.12134 3.4783 92 90 79
-0.282996 1.31627 3.78191 86 87 83
0.352138 -1.98277 4.49923 135 129 131
0.351717 -1.90175 4.47018 138 133 137
0.43905 -1.7457 4.54321 122 116 114
0.722381 -0.358287 4.46633 92 85 90
0.341359 -0.0784167 3.90872 129 121 111
1.39658 0.140951 5.14621 81 70 62
1.46228 0.217665 5.21377 59 48 41
1.57079 0.341893 5.30432 48 41 34
1.62898 0.406232 5.37991 43 36 30
1.74918 1.91537 5.05546 33 31 28
1.34192 1.9921 4.78921 64 53 38
0.638155 -1.51698 4.73478 132 126 127
0.67523 0.22789 4.23344 32 33 23
0.682709 0.329934 4.20708 37 40 25
0.41903 0.239004 2.2626 94 96 98
0.476279 0.730536 3.86297 102 101 95
-0.549377 1.11021 3.54671 23 20 15
0.520672 -0.73105 4.31994 143 131 127
0.651795 0.0482584 4.27147 112 113 116
0.651688 0.0488994 4.26994 107 108 111
0.382138 0.579347 3.77433 123 127 134
0.364976 -0.478223 4.05231 149 140 139
0.830295 0.348902 4.34179 108 104 100
-0.234865 1.34493 3.79367 41 19 13
1.46168 0.343215 5.18197 142 132 131
0.334553 -2.28951 4.57666 29 28 24
1.25958 0.0128133 4.9728 62 51 44
-0.262973 -2.22822 4.98879 5 18 24
0.64358 -1.78565 4.8052 138 135 137
0.1167 -1.31272 4.44455 24 24 20
0.53479 -1.34982 4.56368 141 139 137
0.119184 -1.28618 4.43427 92 92 91
0.118136 -1.29176 4.45047 83 85 84
0.771616 -1.40408 4.85931 38 35 29
0.0161211 -1.28766 4.51262 58 56 58
0.0161211 -1.28766 4.51262 58 56 58
0.123517 -1.23931 4.41904 90 90 92
0.647836 -1.32421 4.70559 56 47 42
0.12512 -1.18641 4.40752 97 99 102
0.17314 -1.14408 4.33757 55 51 54
0.629595 -1.18525 4.63903 127 112 96
0.373809 -0.853281 4.14019 32 26 19
0.373809 -0.853281 4.14019 32 26 19
0.409069 -0.793767 4.20274 123 115 108
0.0900181 -0.783021 4.26811 31 26 20
0.485122 -0.786941 4.28802 34 22 13
0.459558 -0.776433 4.25103 103 93 85
0.560972 -0.762072 4.38682 38 25 14
0.541425 -0.750508 4.36226 135 121 112
0.170536 -0.706432 4.19021 86 87 91
0.448658 -0.689901 4.23809 82 72 67
0.593397 -0.699605 4.4201 141 132 124
0.599141 -0.652034 4.39051 135 130 126
0.480564 -0.577128 4.21749 91 75 66
0.494845 -0.560053 4.26194 153 146 150
0.670197 -0.496835 4.46977 148 148 152
0.735878 -0.4915 4.5327 89 88 92
0.448663 -0.409933 4.13296 52 40 38
0.338145 -0.384996 3.97644 122 117 114
0.607891 -0.359357 4.32141 69 65 64
0.607891 -0.359357 4.32141 69 65 64
0.389928 -0.22182 3.99862 135 126 120
0.348793 -0.174556 3.91782 75 64 55
0.00386346 -0.0975196 4.14999 32 32 29
-0.189565 -0.0945366 4.31843 29 39 55
0.395538 -0.0642165 3.9497 115 105 98
0.662095 -0.0627829 4.32898 72 69 68
1.31853 -0.0690084 5.06114 39 40 50
0.378779 0.0110973 3.91485 127 121 125
1.30858 0.0266261 5.00027 134 127 120
1.29708 0.0781194 5.03352 115 103 91
0.643915 0.112044 4.25419 34 34 25
0.713151 0.16956 4.17906 100 99 100
0.879567 0.234741 4.43763 110 103 99
-0.700681 0.403026 5.36231 29 30 25
0.769324 0.347782 4.27161 34 28 18
0.410831 0.336847 3.85827 68 65 60
1.64164 0.560714 5.38963 92 83 68
0.325362 0.427304 3.73901 44 41 42
0.325362 0.427304 3.73901 44 41 42
-0.0844549 0.470556 4.03451 29 28 24
0.95912 0.510616 4.30654 39 33 26
0.33935 0.468919 3.73743 103 105 113
0.33935 0.468919 3.73743 103 105 113
0.35768 0.490176 3.75661 69 65 67
1.69949 0.75575 5.40446 143 143 142
0.75704 0.578255 3.99337 61 57 53
1.83419 0.789284 5.4142 43 41 38
0.434304 0.577497 3.83274 106 105 101
0.434304 0.577497 3.83274 106 105 101
-0.345627 0.648915 3.85352 95 93 84
-0.512226 0.627732 3.69541 99 102 107
0.791313 0.744085 4.0264 115 113 111
0.786837 0.739381 3.99578 110 108 107
0.766016 0.767914 3.96423 110 110 110
1.37596 0.991032 4.91482 77 73 66
0.375384 0.761755 3.71397 53 48 44
0.489139 0.836952 3.8273 99 100 105
1.36152 1.28954 4.8349 37 32 26
0.39028 1.08314 3.65299 94 95 95
1.38237 1.69735 4.88472 99 101 97
0.361743 1.34957 3.58126 42 38 38
0.325951 1.34695 3.52856 35 35 33
2.61617 2.26471 5.84385 71 76 72
0.427731 1.55102 3.46537 20 18 11
0.345263 -0.64385 -1.41166 81 81 81
0.436306 1.57077 3.46071 20 20 11
0.0967762 -2.65385 -5.29973 98 102 104
0.172626 -2.07062 4.6904 84 89 97
0.151776 -1.91294 4.66031 16 15 14
0.334611 -1.5465 4.34111 25 24 20
-0.00870937 -1.52751 4.6245 48 48 46
0.541785 -1.47349 4.57782 36 29 23
0.345762 -1.32174 4.28038 150 145 150
0.133772 -1.33048 4.42188 98 101 104
0.0644774 -1.33559 4.47908 30 34 30
0.175868 -1.06879 4.29909 90 92 95
0.175868 -1.06879 4.29909 90 92 95
0.0543718 -1.08645 4.41177 94 98 102
0.0543718 -1.08645 4.41177 94 98 102
-0.0194833 -0.745436 4.38218 84 83 80
-0.073035 -0.732745 4.40641 88 85 86
0.261575 -0.597792 4.08291 99 99 97
0.155813 -0.389412 4.10063 92 96 101
0.563547 -0.371582 4.26233 88 79 77
0.336239 -0.192 3.88551 109 103 98
0.232377 -0.174009 4.01322 99 104 110
0.232377 -0.174009 4.01322 99 104 110
0.340469 -0.153199 3.84103 148 147 150
0.589679 -0.0438041 4.16944 36 32 23
1.35682 -0.024402 5.04842 29 28 34
1.22425 0.0437744 4.89226 100 93 86
-0.193543 0.0702081 4.27012 36 46 59
0.0519676 0.0780163 4.05579 16 15 15
0.0519676 0.0780163 4.05579 16 15 15
0.82502 0.141869 4.33691 78 77 79
0.993563 0.152199 4.61876 134 123 113
0.774044 0.152161 4.28948 123 125 127
0.762236 0.263344 4.26782 95 89 84
-0.201202 0.400156 4.18347 72 70 66
-0.022511 0.404818 4.05521 40 36 34
-0.198368 0.405185 4.04195 30 21 15
0.849366 0.430365 4.18395 109 104 100
0.000765241 0.412243 4.00378 80 85 90
0.000765241 0.412243 4.00378 80 85 90
-0.320456 0.409352 3.94045 31 27 20
0.891205 0.485457 4.22831 108 107 105
0.748018 0.596336 4.00656 118 117 112
0.942808 0.654492 4.24326 82 77 74
1.28452 1.21391 4.73158 107 115 119
1.3406 1.24615 4.78961 110 113 111
-0.474168 1.11273 3.60728 22 18 12
-0.454841 1.11483 3.60695 32 28 21
1.38392 1.5716 4.91282 86 84 73
0.561213 1.30742 3.84084 86 87 88
1.30737 1.69944 4.85644 88 87 80
2.49235 2.28151 5.89393 64 65 61
-0.00117956 1.51978 3.65777 17 18 14
1.42629 2.17915 4.79232 26 20 12
0.665219 1.68119 3.65844 22 20 16
1.5832 2.17204 4.7359 28 23 18
0.541769 1.63377 3.5271 73 74 71
0.34351 -2.24595 4.60155 116 105 95
0.275149 -2.22733 4.67722 78 80 84
0.318741 -2.09169 4.54062 55 55 60
0.089406 -2.18141 4.78411 67 75 77
-0.253504 -2.22576 4.98358 19 20 21
-0.253504 -2.22576 4.98358 19 20 21
0.607173 -1.78503 4.77379 36 33 31
0.16115 -1.24077 4.35907 101 105 108
0.704689 -1.35661 4.78916 132 118 106
0.0752563 -1.18135 4.42723 99 104 110
-0.106222 -0.829839 4.4553 38 40 40
0.215855 -0.762164 4.18427 86 91 95
0.129528 -0.526173 4.17957 101 106 112
0.568085 -0.445025 4.29799 124 121 122
0.393942 -0.407227 4.04945 128 123 125
0.66112 -0.41033 4.42788 145 146 154
0.555239 -0.30242 4.27389 137 139 147
0.207027 -0.179243 4.02398 36 35 33
0.493302 -0.0801819 4.0956 51 44 38
1.34465 -0.0585558 5.05141 200 228 247
0.0699973 -0.0161378 4.1003 85 87 89
1.18025 0.0822305 4.83993 54 44 38
1.35684 0.094692 5.09607 52 41 35
1.04378 0.10585 4.562 64 52 43
-0.0326638 0.117401 4.11788 92 93 98
1.43547 0.422696 5.13206 140 131 128
0.863805 0.374876 4.16746 34 26 21
0.816726 0.424786 4.14061 33 33 23
0.0971599 0.478459 3.94737 46 43 37
0.0971599 0.478459 3.94737 46 43 37
-0.228128 0.556889 4.00557 24 20 13
1.81002 1.17994 5.30574 81 84 76
1.81002 1.17994 5.30574 81 84 76
0.347114 0.938445 3.63845 100 102 99
0.45238 1.10785 3.72861 90 91 90
-0.397066 1.10917 3.63345 38 34 28
0.725994 1.32697 3.77944 88 90 89
0.72955 1.42704 3.76986 105 110 115
0.611196 1.54849 3.81306 23 21 15
2.27637 2.48975 5.76636 69 69 61
0.707707 1.66474 3.69899 33 30 26
0.438775 -2.27344 4.77058 35 25 21
0.559388 -2.07677 4.82481 30 26 21
0.0247296 -1.87387 4.76548 27 24 20
0.0978381 -1.25949 4.43251 28 30 24
0.171939 -0.743188 4.2212 96 100 106
0.435494 -0.0397102 4.04453 140 135 134
-0.132537 0.0336916 4.24228 82 85 90
0.690663 0.143907 4.1746 34 31 26
0.957392 0.167746 4.55938 136 128 124
0.75597 0.227389 4.311 99 92 85
0.70946 0.362246 4.20058 117 112 104
1.70903 0.529978 5.50171 107 105 106
-0.0141413 0.428352 4.01724 72 75 83
-0.226614 0.556049 3.99801 24 20 13
-0.483628 1.0893 3.52188 46 43 36
2.63904 1.98773 5.94723 64 70 68
0.345309 1.5066 3.47924 90 96 99
2.21588 2.44011 5.5697 27 22 20
0.345383 -1.46185 4.33281 148 139 134
0.509017 -1.45895 4.52334 60 49 40
-0.15516 -1.3557 4.68442 97 101 107
0.749686 -0.728775 4.60849 38 27 20
-0.182939 0.0703462 4.26708 47 46 48
1.36792 0.681202 4.98192 70 62 53
0.47584 0.729312 3.86116 115 114 110
-0.470518 0.967772 3.69825 92 91 86
1.41962 1.54197 4.90392 60 51 40
0.420941 1.55999 3.4531 24 26 16
0.699319 1.69246 3.69207 24 23 18
0.183936 -1.60408 4.48613 85 90 104
0.361163 -0.964857 4.21558 134 123 120
0.72414 0.300212 4.22265 68 64 61
0.267881 0.415481 3.82481 94 101 111
0.858981 0.461287 4.17025 96 95 89
0.696039 1.62716 3.72348 44 44 38
0.475892 1.64881 3.43572 18 19 13
-0.137116 -1.26682 4.60726 71 76 81
0.445364 -0.827642 4.27433 52 44 35
-0.161104 -0.213989 4.34029 68 74 76
0.471223 -0.0728289 4.06866 72 63 54
1.87156 0.570087 5.67187 33 27 23
0.460152 -2.12555 4.67072 139 133 131
-0.0348066 -2.15874 4.89741 51 53 58
0.760636 -2.14079 4.99215 64 50 33
0.776895 -2.2002 5.13809 56 42 25
0.318981 -1.5562 4.41518 23 23 16
0.364886 -0.199579 3.95345 107 99 98
0.604733 1.7072 3.63161 15 16 13
0.548057 0.034011 4.21232 121 117 117
0.383967 1.55322 3.45857 25 28 14
1.76589 0.819215 5.37037 35 31 24
-66.4138 52.2777 -214.726 230 240 249
0.753489 0.127012 4.27603 51 47 45
0.471811 -1.89327 4.64538 22 17 13
0.472342 -1.8404 4.59211 134 131 126
0.368625 -1.52111 4.33296 28 25 17
-0.155718 -1.49094 4.67993 76 87 108
0.37915 -1.3587 4.33803 166 160 158
0.597456 -1.31949 4.60178 155 148 148
0.598843 -1.31515 4.58087 141 132 129
0.659864 -1.29986 4.68598 153 143 139
0.16312 -1.20624 4.36074 30 31 27
0.696842 -1.2338 4.70895 152 143 137
0.724936 -1.22694 4.72459 94 81 74
0.648707 -1.07601 4.60519 159 152 154
0.648707 -1.07601 4.60519 159 152 154
0.61852 -1.04436 4.53756 146 136 128
0.55947 -0.986032 4.47001 144 136 124
0.423501 -0.931683 4.27678 161 157 156
0.439571 -0.881544 4.28276 72 61 54
0.618663 -0.775362 4.43557 45 38 26
0.494974 -0.727069 4.31829 162 154 151
0.525387 -0.720349 4.3528 154 145 137
0.414676 -0.588874 4.17513 169 166 165
0.414676 -0.588874 4.17513 169 166 165
0.315491 -0.449468 4.05439 78 76 82
0.497814 -0.412441 4.25581 142 140 142
0.479973 -0.272289 4.16702 160 159 163
0.69413 -0.251835 4.44893 130 131 136
0.687706 -0.157011 4.40537 130 128 126
1.14866 -0.0633609 4.71534 42 37 51
-0.211073 -0.0432271 4.31932 194 234 251
0.0764168 -0.0391368 4.14265 22 27 21
0.655991 -0.0235253 4.27189 53 48 41
1.05399 0.105307 4.68877 67 54 43
0.792562 0.0788147 4.375 38 32 24
0.826 0.139567 4.37231 89 87 87
1.01939 0.290035 4.65114 104 97 89
0.635672 0.281539 4.19548 115 115 113
0.307635 0.292095 3.89676 70 71 74
0.76728 0.352182 4.30845 35 29 19
0.158298 0.474924 3.95244 45 43 38
1.96874 0.972906 5.49728 125 125 119
1.84067 1.17595 5.30805 65 62 56
0.400871 1.13561 3.73706 98 102 101
0.348904 1.31493 3.52467 112 114 117
1.46806 1.76519 4.85322 54 49 42
1.46806 1.76519 4.85322 54 49 42
2.92253 2.09097 5.53867 88 92 83
0.340403 1.53472 3.53996 103 106 106
2.74588 2.2017 5.41944 102 110 114
2.74588 2.2017 5.41944 102 110 114
1.06981 1.97562 4.32083 99 97 92
-2.45039 -6.11227 -12.0071 96 97 98
0.67571 -2.11956 4.8449 42 32 25
0.181402 -1.98508 4.58412 90 92 93
0.0964692 -1.22831 4.46122 91 90 90
0.412116 -1.20843 4.33768 152 147 146
-0.119691 -1.22378 4.58483 93 98 107
0.598455 -0.968953 4.49609 153 146 143
0.574108 -0.985867 4.77354 158 152 151
-0.0616111 -0.927508 4.4637 99 103 115
-0.0616111 -0.927508 4.4637 99 103 115
-0.0616111 -0.927508 4.4637 99 103 115
0.633413 -0.556223 4.43649 145 146 150
0.423936 -0.541424 4.18781 156 149 145
0.524191 -0.457363 4.27763 139 134 135
0.498682 -0.219614 4.18824 125 126 123
0.497207 -0.220428 4.21176 119 119 114
0.690385 -0.208791 4.39731 157 160 171
0.686678 -0.205805 4.45331 153 157 169
0.64178 -0.175942 4.35362 140 143 144
0.23527 -0.0550615 3.99516 88 89 87
0.926258 0.137365 4.52686 63 54 49
0.759743 0.123964 4.29249 52 47 43
0.824349 0.199784 4.39082 134 130 126
0.910009 0.304045 4.49489 78 67 55
0.815174 0.424566 4.14377 36 36 24
0.916846 0.484056 4.2465 40 31 23
0.46757 0.509336 3.92139 133 132 127
0.768156 0.555597 4.05169 129 131 133
0.767142 0.562875 4.08977 119 121 119
0.768156 0.555597 4.05169 129 131 133
1.38841 1.60539 4.85814 104 101 94
2.83938 1.91475 5.59635 71 77 76
1.07024 1.7183 4.36216 109 108 104
0.342215 1.44297 3.5153 111 114 121
0.73459 1.69466 3.69211 107 109 108
-0.135779 1.64737 3.29725 111 111 112
0.712576 -2.06012 4.93631 85 71 65
0.389308 -1.92572 4.50798 99 90 86
0.618517 -1.73105 4.74896 136 130 128
0.0838822 -1.33567 4.46475 27 28 24
0.338163 -0.320986 4.01909 140 136 140
0.339607 -0.322853 4.00838 146 142 147
0.338059 -0.0790601 3.92117 139 130 119
0.703189 0.0518317 4.34957 116 115 118
-0.663784 1.25015 3.95784 35 32 26
3.05463 2.18101 5.53948 24 25 19
0.442878 -1.43269 4.43301 129 114 101
0.490814 -1.13385 4.42115 118 108 102
0.464606 -0.913036 4.32662 148 142 140
0.51416 -0.859832 4.38893 136 128 121
0.748227 -0.727015 4.60543 43 32 24
0.345884 0.292334 3.83067 138 138 145
2.91424 2.09035 5.45949 87 90 87
2.91424 2.09035 5.45949 87 90 87
1.06228 1.77082 4.35606 95 96 89
-0.0950466 1.6027 3.64836 34 32 25
0.574524 -2.12347 4.79285 130 125 123
0.487541 -1.78978 4.6123 38 36 30
-0.0153679 -1.54641 4.56729 97 104 121
0.0367784 -1.39446 4.51815 95 97 105
-0.165057 -0.211895 4.35222 71 76 80
0.98233 0.549822 4.37866 128 123 118
0.737283 1.36958 3.84069 90 92 90
0.444801 -1.48995 4.43672 37 31 21
0.702425 -0.46213 4.50004 88 79 68
1.06426 1.49225 4.44464 98 97 96
2.98014 2.11192 5.53719 83 85 79
0.52541 -1.99054 4.70472 32 32 27
0.568023 -0.662771 4.37504 164 156 147
0.639749 0.158595 4.20651 42 40 33
1.19446 -2.02361 -4.48529 104 103 94
0.0361853 -0.108646 4.18854 74 75 77
0.32677 -1.85323 4.4166 54 55 58
0.639507 -1.91242 4.82234 150 143 141
0.390608 -1.62284 4.42553 143 137 133
0.682453 -1.56758 4.77717 159 156 153
0.532477 -1.30016 4.54004 157 147 141
1.10883 0.121267 4.78731 142 133 125
1.87179 0.8203 5.423 126 127 128
0.674733 -1.11594 4.63326 150 143 144
1.95321 0.913953 5.51581 123 122 117
0.717263 -0.141852 4.43709 119 116 116
1.22789 0.3215 4.86004 50 41 33
0.373709 -2.15776 4.53883 129 117 106
0.267172 -0.844337 4.10129 31 31 25
0.551963 -1.24591 4.52792 154 146 137
0.604407 -2.13188 4.82807 141 131 127
0.455506 -1.28469 4.40931 154 147 142
0.488975 -1.27167 4.45143 159 153 147
0.592187 -0.699771 4.43832 168 158 153
0.389077 -0.26305 4.04686 144 134 119
0.629902 -0.0675615 4.309 70 66 62
1.3025 0.580053 4.9035 139 136 133
0.531604 -1.21025 4.49318 154 145 145
0.373436 -0.806638 4.1775 159 141 127
0.498892 -0.218411 4.17937 125 125 124
1.31827 -0.0706477 5.06557 35 38 49
0.376211 -0.00702805 3.95857 157 152 153
1.02093 0.289243 4.64962 108 102 94
1.54946 1.56964 2.79047 148 152 147
0.892622 0.310256 0.236206 105 101 92
0.451042 -1.66707 4.50958 141 137 135
0.511085 -0.366497 4.23688 146 148 153
0.573467 -2.13594 4.81169 116 111 109
0.794471 0.231042 4.34258 29 30 21
1.35905 0.365989 5.03194 53 42 32
2.35208 2.03928 5.87064 74 76 80
0.409007 -1.65629 4.48576 130 122 118
0.430925 -0.0956081 4.08014 62 52 40
0.618025 0.458711 4.03751 32 36 26
0.644244 -1.37543 4.66986 140 124 109
0.646565 -1.16874 4.61875 138 123 106
0.557821 -0.631532 4.3656 171 162 161
0.577075 -0.270298 4.29841 85 80 77
0.447577 0.00473663 4.05359 156 144 138
1.24442 0.10285 1.12016 76 77 67
0.432443 1.05851 3.71825 108 109 106
0.473681 -0.0307337 4.08333 128 122 118
2.26065 1.23426 5.97016 36 36 24
0.566887 -1.52848 4.66394 99 97 95
0.46201 -1.01636 4.36138 164 158 161
0.567521 -0.447608 4.33603 141 138 141
0.391067 -2.2326 4.51359 36 29 24
