ply
format ascii 1.0
element vertex 1333
property float x
property float y
property float z
property uchar diffuse_red
property uchar diffuse_green
property uchar diffuse_blue
end_header
-2.56602 1.13149 6.07801 75 59 78
1.65388 0.736595 3.86814 120 129 179
1.65388 0.736595 3.86814 120 129 179
-3.0693 1.21415 6.35305 94 107 142
-3.0693 1.21415 6.35305 94 107 142
0.857858 0.737037 3.8225 140 116 129
-0.745086 0.87742 4.51053 159 108 123
-3.06031 1.24382 6.33379 89 102 134
-1.71964 1.03971 5.27409 87 39 48
-1.75408 1.03251 5.18473 141 96 108
0.447154 0.81909 4.09476 132 128 148
0.891143 0.766623 3.80464 126 112 129
-2.37863 1.20782 5.9283 112 123 157
-3.06612 1.33718 6.32506 91 100 133
0.383471 0.875003 4.1345 65 50 73
0.312743 0.887219 4.17211 74 49 66
0.366213 0.884155 4.14457 120 114 131
0.0538939 0.842953 3.8601 142 109 121
-1.97567 1.14889 5.18533 42 27 36
-1.80823 1.14001 5.07497 48 27 37
-2.38434 1.34268 5.91256 120 110 133
-0.957783 1.02647 4.51603 77 39 55
-0.708871 0.995066 4.35001 69 39 54
-2.34582 1.34857 5.88467 61 53 71
-0.392039 0.952448 4.14154 73 33 46
-0.140701 0.918986 3.96899 59 34 42
-0.140701 0.918986 3.96899 59 34 42
0.151837 0.92725 4.00635 70 35 52
0.151837 0.92725 4.00635 70 35 52
0.368738 0.979425 4.12702 120 115 134
0.949141 0.892913 3.73833 134 111 123
0.8456 0.916561 3.81619 92 64 89
0.886797 0.909955 3.78316 92 64 79
0.914108 0.90546 3.76335 96 65 76
-1.09344 1.10699 4.59064 80 44 58
-1.09341 1.10702 4.59046 80 45 61
-0.808425 1.06813 4.40085 82 43 60
-0.333019 0.99469 4.09495 93 48 64
-0.332923 0.993414 4.09021 90 46 61
0.377412 1.00158 4.11181 51 30 42
0.377412 1.00158 4.11181 51 30 42
-0.60374 1.04102 4.26806 79 43 60
-1.44588 1.1806 4.82406 96 48 65
0.35739 1.01066 4.12262 121 97 114
0.35739 1.01066 4.12262 121 97 114
0.217879 1.01065 4.1017 77 39 54
-0.323212 1.00686 4.0829 93 48 63
-0.323212 1.00686 4.0829 93 48 63
-0.208899 0.990206 4.01026 72 32 46
-0.0335994 0.966228 3.89081 85 43 54
0.0902705 0.969656 3.8962 68 38 44
0.721519 1.01873 3.87999 123 120 143
0.380927 1.08402 4.09578 65 44 63
0.415825 1.08672 4.08123 65 48 75
0.510562 1.0811 4.01582 118 112 134
0.510562 1.0811 4.01582 118 112 134
0.566036 1.07801 3.95341 135 130 154
0.555796 1.11032 3.96609 85 58 71
0.555796 1.11032 3.96609 85 58 71
0.653426 1.12443 3.90191 93 69 89
0.770551 1.10387 3.83404 79 59 80
0.371168 1.20997 4.07814 121 117 135
0.371168 1.20997 4.07814 121 117 135
0.698565 1.15619 3.86524 130 107 119
0.391179 1.23398 4.06779 129 121 146
0.391179 1.23398 4.06779 129 121 146
0.399972 1.23426 4.06467 73 55 84
-1.60184 1.16668 3.82283 89 48 61
1.49744 1.16581 3.79664 71 92 140
0.408796 1.28202 4.04505 81 57 77
-3.04978 1.91963 6.01276 76 83 96
-1.44945 1.18837 3.71904 85 42 58
-1.44665 1.18564 3.71037 86 44 60
-0.473467 1.20857 3.78216 100 51 71
-1.77619 1.27078 3.93285 77 36 50
-1.77619 1.27078 3.93285 77 36 50
0.352822 1.3181 4.07172 99 83 102
-2.88704 1.89449 5.83868 123 133 143
1.47291 1.24304 3.82608 86 99 121
0.3671 1.32529 4.06363 96 81 102
-1.74302 1.28066 3.91232 63 35 50
-0.844475 1.13911 3.478 109 54 76
-0.816829 1.13925 3.47891 109 55 76
-1.79192 1.29135 3.94272 89 48 66
-1.79192 1.29135 3.94272 89 48 66
-1.06841 1.13509 3.46416 82 36 48
-1.60085 1.25017 3.81152 70 35 56
-3.08747 1.82497 5.51882 108 118 117
-1.40281 1.22151 3.68307 90 43 59
-1.35481 1.21876 3.65245 83 45 62
-0.488045 1.26442 3.74743 103 52 72
-1.78758 1.33902 3.93626 71 37 57
-2.97601 1.71582 5.00533 40 61 44
-0.815758 1.19929 3.46888 119 64 82
0.327352 1.41663 4.07031 103 105 121
0.634748 1.36061 3.87028 117 109 138
0.391136 1.4182 4.02257 60 55 75
-0.320925 1.42896 3.90561 78 52 68
0.066449 1.40956 3.68368 135 106 123
-0.264683 1.52195 3.78038 101 108 123
-1.38396 1.44349 3.49333 39 39 92
-1.34803 1.44283 3.48243 103 111 131
0.467579 1.47778 3.46558 133 143 160
0.467579 1.47778 3.46558 133 143 160
0.215756 1.42871 3.29303 166 183 209
-0.679483 -1.20592 5.19876 104 86 112
0.442933 -1.02614 4.43467 68 48 68
-0.738537 -1.19242 5.16293 208 198 183
0.692831 -0.974491 4.2474 78 59 78
-0.865567 -1.20645 5.27024 175 156 144
-0.521916 -1.17102 5.10835 131 114 135
0.15245 -1.06009 4.62733 101 73 93
0.368107 -1.02739 4.48728 73 53 70
-0.364139 -1.14458 4.99763 136 119 141
0.927618 -0.932237 4.08094 125 109 131
-1.46676 -1.31962 5.77904 71 54 71
0.2717 -1.03274 4.54387 92 60 77
-0.0852265 -1.08947 4.80407 89 62 76
-0.842621 -1.17984 5.23483 64 102 118
0.733467 -0.943546 4.20359 78 55 76
-0.801679 -1.13803 5.20365 32 26 39
-1.00576 -1.18075 5.44295 70 46 65
-1.00576 -1.18075 5.44295 70 46 65
-0.683514 -1.12689 5.19649 120 96 112
-1.13152 -1.18672 5.52934 124 103 120
-2.29789 -1.36516 6.36903 82 61 82
-0.686589 -1.11374 5.20424 65 42 57
-1.09128 -1.17375 5.50154 73 51 68
0.196496 -0.97677 4.59156 130 117 143
-0.274889 -1.04161 4.93349 139 123 143
-3.97974 -1.48293 7.04176 84 93 144
-1.47674 -1.21088 5.77486 133 116 138
0.0492799 -0.97852 4.6854 122 105 121
-1.25985 -1.16129 5.60256 124 122 138
0.172991 -0.950936 4.59409 102 77 96
-2.15458 -1.29212 6.24822 72 58 76
0.59707 -0.88995 4.3091 126 115 136
0.0143276 -0.969821 4.71787 93 69 89
0.714733 -0.865712 4.21036 82 59 79
-1.26079 -1.1442 5.59886 45 31 48
-1.26079 -1.1442 5.59886 45 31 48
-1.41332 -1.16644 5.71841 79 60 76
-0.0284101 -0.947783 4.72561 140 122 140
-0.0284101 -0.947783 4.72561 140 122 140
-1.68056 -1.17039 5.90103 91 66 89
-0.77224 -0.955274 4.82332 160 115 131
-1.08801 -1.07065 5.48156 68 57 72
-2.16405 -1.20396 6.23134 82 59 79
-1.23768 -1.07218 5.58059 56 46 70
-2.23544 -1.20388 6.27483 69 57 74
-2.16856 -1.18471 6.22066 137 118 138
-1.97636 -1.15974 6.09076 66 48 64
0.370287 -0.844904 4.43453 125 118 140
-0.868704 -0.926619 4.88557 102 48 57
0.312911 -0.853343 4.4989 89 59 71
0.888898 -0.76735 4.07672 41 30 47
0.890247 -0.768242 4.08149 45 33 53
1.47458 -0.784195 4.17097 86 95 116
0.69891 -0.769876 4.20568 91 63 79
0.698362 -0.769478 4.2033 91 63 79
0.805509 -0.755287 4.13382 50 39 57
0.805509 -0.755287 4.13382 50 39 57
-1.32788 -1.02849 5.64636 128 111 131
-0.48372 -0.90984 5.03916 130 109 134
0.518017 -0.763922 4.32637 86 56 77
0.0567988 -0.815679 4.66012 71 52 69
0.680262 -0.738182 4.21834 52 34 51
0.680262 -0.738182 4.21834 52 34 51
-2.28325 -1.08586 6.28535 70 47 59
0.0166202 -0.80707 4.68355 80 60 78
0.727703 -0.716416 4.17843 80 64 90
0.727703 -0.716416 4.17843 80 64 90
0.024308 -0.795525 4.66725 132 112 133
0.638894 -0.718734 4.23807 130 108 128
-2.41087 -1.0708 6.35705 134 113 130
-0.10945 -0.801361 4.76528 102 69 81
-0.0809986 -0.798839 4.74767 96 67 81
0.453412 -0.734814 4.37142 86 61 80
-2.04023 -1.02082 6.11449 79 58 76
1.1012 -0.647621 3.90487 148 123 142
0.109046 -0.759661 4.60597 101 77 94
0.109046 -0.759661 4.60597 101 77 94
-0.359792 -0.799533 4.93012 91 68 92
-2.50372 -1.03949 6.43643 70 56 74
0.719267 -0.67012 4.1809 74 58 77
0.711518 -0.668348 4.18941 78 59 77
0.684852 -0.667388 4.20338 71 47 55
-0.243467 -0.762924 4.84458 79 54 75
-1.90291 -0.94367 6.00821 78 59 78
-1.83354 -0.935139 5.96388 127 107 127
0.328392 -0.689133 4.45404 87 63 77
0.328503 -0.689239 4.45536 87 63 77
0.714365 -0.63898 4.1788 116 105 130
-2.56003 -0.966264 6.44399 93 66 79
0.276985 -0.668441 4.46925 121 106 127
0.438365 -0.606331 4.36842 82 69 91
-1.86652 -0.827724 5.965 77 56 70
-1.86652 -0.827724 5.965 77 56 70
0.329618 -0.612145 4.43953 84 59 73
-0.881502 -0.652038 4.78497 50 23 33
-3.75364 -0.949065 6.99449 163 172 219
-3.75364 -0.949065 6.99449 163 172 219
0.271198 -0.605099 4.47109 85 61 74
0.467296 -0.582822 4.32954 88 61 78
0.467613 -0.583039 4.33141 89 62 78
0.182741 -0.587185 4.5267 83 53 68
0.638977 -0.538442 4.20346 126 111 132
0.541711 -0.544067 4.27882 39 26 41
0.474557 -0.537141 4.32509 57 39 51
0.926457 -0.492108 3.99174 94 70 85
0.449898 -0.533959 4.3468 64 46 60
-2.53173 -0.770624 6.39616 75 63 88
1.03752 -0.464993 3.9176 79 60 79
1.03752 -0.464993 3.9176 79 60 79
0.547494 -0.494881 4.27316 62 39 55
-1.897 -0.681731 5.95517 74 56 69
-2.5761 -0.71837 6.40441 70 56 71
-2.5761 -0.71837 6.40441 70 56 71
0.241162 -0.502419 4.47777 87 63 77
0.458604 -0.483559 4.3231 72 51 63
0.487336 -0.477973 4.30473 139 122 144
-2.61304 -0.709636 6.42484 59 48 64
-2.61304 -0.709636 6.42484 59 48 64
-0.190169 -0.521377 4.77028 75 50 65
0.418109 -0.475096 4.3485 79 55 68
0.958854 -0.432714 3.95834 70 61 80
-0.198865 -0.508509 4.77038 133 116 137
0.248172 -0.471535 4.45885 89 65 81
-0.449351 -0.454813 4.65406 71 29 42
0.144696 -0.431478 4.52707 86 64 78
0.461902 -0.379735 4.3027 75 51 59
0.461902 -0.379735 4.3027 75 51 59
-2.83083 -0.559781 6.56606 71 83 129
-0.169145 -0.396488 4.72449 89 56 72
-0.978457 -0.404897 4.85005 70 33 45
-0.978457 -0.404897 4.85005 70 33 45
-0.468184 -0.382694 4.58604 67 30 40
-1.47059 -0.434504 5.24592 39 18 26
-2.20746 -0.503345 6.1328 72 49 60
-0.649044 -0.372721 4.61139 62 25 34
-0.649044 -0.372721 4.61139 62 25 34
1.39841 -0.321919 4.09446 75 87 113
-0.468625 -0.354422 4.58831 66 29 40
0.346516 -0.334728 4.37873 134 117 135
0.370375 -0.332158 4.35687 128 110 122
-2.46215 -0.456451 6.29449 52 41 59
0.890025 -0.288757 3.99647 75 51 72
0.890025 -0.288757 3.99647 75 51 72
0.930404 -0.287276 3.96911 131 114 136
0.835733 -0.28969 4.02756 84 59 77
0.835733 -0.28969 4.02756 84 59 77
0.852053 -0.288787 4.0181 132 110 133
-1.6212 -0.403477 5.72796 134 109 122
-1.6212 -0.403477 5.72796 134 109 122
-2.47592 -0.440089 6.29407 139 120 140
-2.64331 -0.433802 6.42011 70 56 75
-0.649801 -0.307266 4.5757 53 21 33
0.799571 -0.2668 4.06039 81 59 69
0.910423 -0.253906 3.9735 90 64 79
0.910423 -0.253906 3.9735 90 64 79
0.810964 -0.251886 4.03944 138 125 142
-0.0640148 -0.287253 4.64213 80 58 80
-0.708908 -0.282142 4.60142 127 77 92
-0.623067 -0.277902 4.63278 46 19 29
0.80853 -0.241048 4.04155 73 54 69
-0.723584 -0.274185 4.61383 53 25 34
0.0435124 -0.27059 4.56006 135 122 144
0.46464 -0.239246 4.28118 60 41 55
0.600517 -0.222181 4.18582 67 46 56
0.558928 -0.219256 4.21151 83 57 66
-0.786316 -0.240739 4.65303 103 69 81
0.593589 -0.211497 4.19296 114 94 115
-1.40138 -0.253676 5.21325 63 33 48
-1.17129 -0.238335 4.92334 48 20 33
-1.17061 -0.239036 4.91952 49 21 33
-1.20962 -0.229152 4.95253 67 33 41
0.45523 -0.193978 4.28663 73 59 74
-1.17242 -0.208844 4.91157 56 27 35
0.452088 -0.178758 4.28137 127 118 141
0.391844 -0.170742 4.322 123 117 134
0.338355 -0.168847 4.35475 115 111 131
0.357076 -0.1647 4.32924 132 119 138
0.22158 -0.167754 4.43016 131 116 138
-2.46653 -0.23603 6.26515 68 51 64
-3.12786 -0.245809 6.64648 104 115 156
-1.80363 -0.209092 5.82039 57 44 55
-3.12791 -0.223645 6.64526 105 118 155
0.200498 -0.149657 4.44361 77 63 80
-2.12805 -0.199005 6.02042 70 53 70
-1.93298 -0.188062 5.9 67 51 69
-1.2156 -0.151366 4.94371 131 83 97
-0.646009 -0.132363 4.57129 139 89 101
0.137286 -0.119155 4.47308 79 60 80
0.137286 -0.119155 4.47308 79 60 80
-0.833227 -0.11683 4.8006 55 25 33
-1.09114 -0.108597 4.97718 64 31 41
-1.01999 -0.092352 4.92974 58 27 38
-1.01913 -0.0927886 4.92414 57 27 37
-1.01999 -0.092352 4.92974 58 27 38
-2.17118 -0.107306 6.03368 78 51 60
-2.1987 -0.100741 6.05501 75 51 60
-0.999386 -0.0751479 4.90968 63 34 45
-2.62147 -0.089083 6.33467 70 54 70
-2.37942 -0.0703208 6.1721 66 46 58
0.441435 -0.045456 4.27548 57 42 54
-1.8942 -0.00181959 5.83573 127 108 126
0.258978 0.00386157 4.37636 124 107 128
-0.892857 0.0108491 4.82338 51 22 28
0.542297 0.0130914 4.17943 76 58 71
-0.949676 0.0186392 4.85888 56 26 30
-0.838116 0.0259025 4.78654 53 24 32
-0.0362142 0.027158 4.56078 84 57 75
-1.00141 0.0474542 4.88774 63 28 35
-0.847991 0.04767 4.79007 111 67 72
-1.04412 0.0941439 4.90975 66 32 41
0.624897 0.0888962 4.1125 125 107 128
-1.91554 0.132652 5.82801 62 46 61
0.637337 0.0928208 4.10758 136 127 144
-0.783738 0.119509 4.73107 101 63 69
1.56876 0.109167 4.06953 99 101 148
-2.22487 0.181527 6.01882 55 43 59
-0.362011 0.13917 4.55564 62 29 36
0.913448 0.120753 3.90418 87 60 76
0.220367 0.140462 4.37057 144 122 142
-2.30416 0.196194 6.06284 47 40 60
0.123716 0.145168 4.44076 100 58 70
-0.367735 0.159523 4.57467 66 28 34
-2.52588 0.218844 6.21932 61 48 60
-2.57549 0.226508 6.2553 69 55 68
-2.69978 0.244377 6.32957 58 48 62
0.458858 0.162075 4.20596 80 56 73
-1.37716 0.234814 5.23372 64 28 34
-1.37716 0.234814 5.23372 64 28 34
-1.37447 0.25027 5.21802 116 72 83
-2.0321 0.280413 5.87099 54 37 53
0.76016 0.204666 3.99503 68 46 58
0.910519 0.202504 3.89558 108 88 106
-2.12548 0.310714 5.93764 124 104 127
-0.998592 0.26556 4.87238 36 16 16
-0.988521 0.274505 4.88132 84 64 46
-0.988521 0.274505 4.88132 84 64 46
1.0341 0.215731 3.7978 128 106 126
0.332284 0.252887 4.27782 138 106 120
0.317732 0.254468 4.28983 133 108 124
0.274463 0.271058 4.31504 71 46 58
1.5117 0.259442 3.98934 92 100 146
-0.628729 0.308236 4.57761 112 77 92
1.60709 0.275039 4.02348 122 123 174
0.481402 0.290057 4.16934 70 51 71
0.481402 0.290057 4.16934 70 51 71
1.11626 0.270498 3.73499 130 107 125
-1.41707 0.380203 5.22936 69 27 31
-1.98802 0.43607 5.83675 116 98 114
-2.01661 0.441858 5.81526 117 100 120
-0.635415 0.350694 4.59236 56 26 33
0.56098 0.316514 4.11034 81 63 81
0.471425 0.325308 4.16759 137 117 133
0.471279 0.336322 4.17142 77 54 64
0.469148 0.347702 4.16733 119 102 123
-2.56085 0.524199 6.17841 124 110 132
-2.56085 0.524199 6.17841 124 110 132
-1.11249 0.418839 4.90741 56 27 36
0.90392 0.34602 3.86815 64 44 60
-0.682138 0.416962 4.61472 70 42 55
1.0396 0.347463 3.77145 74 51 64
0.542623 0.38229 4.10473 140 123 133
0.477875 0.392147 4.15893 66 46 67
-1.41671 0.495961 5.23514 57 28 36
0.960997 0.36727 3.8256 125 107 129
-0.227959 0.427089 4.4357 51 26 34
0.620624 0.398886 4.05972 86 57 66
0.620624 0.398886 4.05972 86 57 66
0.645525 0.398679 4.04365 82 56 67
-0.835525 0.468716 4.71057 90 66 52
-0.656669 0.457533 4.5841 148 99 112
0.624958 0.409359 4.05535 135 116 135
0.624958 0.409359 4.05535 135 116 135
0.291837 0.433409 4.28187 46 33 46
0.736563 0.400918 3.96833 101 83 104
0.736563 0.400918 3.96833 101 83 104
-0.658416 0.471063 4.59406 87 39 48
-2.42177 0.63024 6.06276 121 103 128
-0.843143 0.490889 4.70767 175 159 136
-2.34464 0.630882 6.01535 46 34 52
-2.34525 0.63133 6.0171 45 34 51
-2.34525 0.63133 6.0171 45 34 51
-2.58053 0.650424 6.18211 58 46 66
-0.695548 0.488713 4.61426 120 70 76
-0.878498 0.505702 4.70036 176 166 139
-0.612901 0.493812 4.57636 64 33 44
-2.78497 0.68187 6.30453 63 70 108
-1.13255 0.545588 4.90346 114 66 73
-1.20956 0.55633 4.95456 115 66 72
-1.22749 0.559357 4.96734 58 25 33
-2.21781 0.671136 5.91225 65 48 63
-2.37808 0.696517 6.03547 63 47 66
-2.37808 0.696517 6.03547 63 47 66
-0.844311 0.564156 4.76051 111 93 76
-0.892925 0.588486 4.75114 79 50 37
-0.2691 0.572961 4.42516 127 73 84
0.92334 0.505465 3.81892 112 90 103
0.723344 0.528085 3.96761 120 98 111
-2.33261 0.800192 5.98009 64 52 68
-1.53372 0.714464 5.28795 76 34 45
-0.903535 0.63785 4.60602 201 192 184
0.769279 0.54277 3.92056 125 108 127
0.811979 0.539067 3.89647 125 108 127
0.37127 0.582797 4.20031 96 65 75
0.698995 0.554467 3.98263 119 110 125
0.532569 0.570608 4.08803 69 51 66
-0.463902 0.64284 4.56568 60 23 31
0.274269 0.604654 4.2619 74 48 56
0.727159 0.564807 3.95179 145 125 140
1.5705 0.570592 3.9541 123 134 184
1.5705 0.570592 3.9541 123 134 184
-2.03216 0.837266 5.77917 99 90 112
-0.944855 0.664718 4.57833 199 197 184
-0.676275 0.668824 4.57588 69 39 49
-0.186344 0.651244 4.30226 130 79 92
0.79303 0.59131 3.8972 138 118 132
-1.00939 0.702459 4.5928 138 136 133
-0.810753 0.700005 4.58051 105 86 79
-0.881 0.704745 4.58815 170 159 142
-0.820301 0.708975 4.5796 169 159 141
-0.881449 0.714456 4.57997 58 43 55
1.02892 0.584509 3.73864 101 73 88
-0.784174 0.714523 4.56892 109 87 90
-1.65173 0.844336 5.3348 54 22 30
-0.772802 0.72401 4.56473 175 166 159
-0.812103 0.726495 4.55239 101 75 74
-0.651794 0.728092 4.54963 97 43 50
0.710337 0.63159 3.94382 134 114 129
1.01535 0.600403 3.7466 148 127 140
-0.347282 0.723655 4.46918 68 32 42
1.11562 0.595954 3.67329 63 42 55
1.11562 0.595954 3.67329 63 42 55
-1.56099 0.84856 5.21877 64 24 30
-0.788001 0.739554 4.55058 42 19 28
0.769163 0.639787 3.90428 73 51 70
0.56457 0.668929 4.05205 80 55 70
-1.21808 0.814387 4.91935 68 30 40
0.509726 0.675846 4.07789 69 53 77
0.509726 0.675846 4.07789 69 53 77
0.765951 0.649209 3.90568 143 120 136
0.375048 0.696565 4.1827 63 40 53
-0.420786 0.758491 4.52193 79 32 43
-0.732359 0.774566 4.59341 133 78 88
-2.77467 1.05249 6.23129 86 97 135
0.0182191 0.693218 4.10308 54 33 41
0.2626 0.722371 4.24519 120 107 129
-0.178333 0.754095 4.35268 67 32 44
-0.178361 0.753996 4.35113 65 33 44
-1.50317 0.912189 5.23549 66 26 34
-1.51604 0.935817 5.23629 54 22 31
-1.18176 0.879088 4.88501 63 23 30
-2.24822 1.06771 5.89391 57 43 54
-1.81423 0.979736 5.31592 73 34 43
0.228714 0.789485 4.24762 78 51 69
-1.75743 0.980552 5.25648 135 93 109
-2.20567 1.09559 5.84356 121 104 118
-2.20567 1.09559 5.84356 121 104 118
0.739288 0.744169 3.90082 143 117 130
1.07833 0.701662 3.67877 143 116 126
0.462796 0.787156 4.09108 128 107 121
0.462796 0.787156 4.09108 128 107 121
-0.559147 0.857517 4.41368 158 106 123
0.393848 0.811246 4.1432 86 59 77
0.962737 0.745355 3.75758 73 53 65
-0.741803 0.89642 4.49243 158 106 121
-0.554447 0.876912 4.39384 158 103 119
0.808324 0.771648 3.87015 63 41 59
0.808324 0.771648 3.87015 63 41 59
0.31304 0.840345 4.19108 125 117 142
0.910233 0.760118 3.79469 141 125 136
0.441889 0.838924 4.09319 141 117 132
0.637892 0.818489 3.96711 94 71 86
0.637892 0.818489 3.96711 94 71 86
0.411865 0.870908 4.12372 86 61 79
0.399461 0.874237 4.12399 122 118 141
0.399461 0.874237 4.12399 122 118 141
0.352244 0.88653 4.14984 125 116 134
0.793351 0.82832 3.85531 85 58 65
-3.06491 1.36989 6.32376 93 105 139
-0.26047 0.881806 4.06326 152 120 137
-0.991962 0.988468 4.54061 60 57 102
-1.9201 1.13862 5.14372 105 68 75
-0.834586 0.982717 4.4349 68 41 55
-1.79637 1.12619 5.0713 51 27 39
-3.06455 1.407 6.31855 95 109 141
-1.51247 1.09001 4.89196 73 36 51
-1.23015 1.05193 4.70248 75 39 54
-2.2683 1.30887 5.84811 54 43 66
-0.023305 0.880058 3.9145 67 34 48
-0.0240415 0.876958 3.90201 64 32 46
-1.82424 1.14552 5.07864 112 77 82
0.023116 0.873343 3.86664 129 86 101
-0.660215 0.977118 4.32604 61 32 46
-1.54453 1.1086 4.90106 131 82 99
0.601723 0.897907 3.95707 79 120 208
-3.05634 1.44137 6.29471 94 105 137
-0.673111 0.990259 4.32895 63 33 47
-0.494572 0.96422 4.21214 67 37 46
-2.39331 1.35666 5.92098 59 50 70
-2.39331 1.35666 5.92098 59 50 70
-2.28741 1.34262 5.85703 46 36 52
-0.427428 0.958021 4.16094 61 36 45
-0.9717 1.04602 4.52516 70 42 60
-0.104312 0.914607 3.94931 61 31 42
-0.688957 1.00861 4.33958 70 38 52
0.33717 0.96213 4.13841 75 46 59
-1.89999 1.19797 5.12883 57 29 38
-1.61621 1.16352 4.94378 66 32 44
0.160358 0.945696 4.02091 64 31 46
-1.33502 1.12586 4.76103 78 37 52
0.287309 0.988085 4.17587 128 121 143
-1.40187 1.13556 4.79218 75 38 54
0.416928 0.972997 4.09625 59 42 55
-1.05061 1.08955 4.57325 86 43 54
-1.66024 1.18349 4.96311 58 34 42
-0.764823 1.05171 4.38463 70 41 52
0.968182 0.894581 3.72659 75 50 63
0.981632 0.895926 3.72043 69 55 70
-0.484361 1.01492 4.19886 63 30 42
-0.857399 1.07745 4.43911 78 40 56
-1.73222 1.22046 5.01702 64 33 44
-1.73222 1.22046 5.01702 64 33 44
0.20903 0.99306 4.08749 73 35 48
-2.75191 1.49871 6.13868 81 87 122
-1.63733 1.20613 4.94831 80 48 59
-1.63733 1.20613 4.94831 80 48 59
-1.43136 2.57007 10.5104 73 33 47
-0.49488 1.02865 4.20062 66 32 48
-0.49488 1.02865 4.20062 66 32 48
-0.458723 9.93545 40.6566 84 47 63
-0.0445047 0.954828 3.89747 80 43 57
-2.76686 1.50704 6.13948 144 163 203
0.0109629 0.948695 3.86601 62 30 39
-1.16072 1.14136 4.63667 90 45 60
0.3819 1.01253 4.10733 109 104 122
-0.878069 1.10543 4.44658 97 50 64
-0.878069 1.10543 4.44658 97 50 64
-0.00473359 0.963035 3.8688 71 34 43
-0.00420917 0.965309 3.87696 73 33 42
-1.92879 1.27444 5.04278 67 40 46
0.108286 1.0009 3.92066 81 40 52
-1.01355 1.14749 4.45821 128 97 112
-1.05162 1.24155 4.81834 132 100 116
0.464912 1.06263 4.03767 131 108 121
1.07899 0.981859 3.62709 129 105 119
0.877449 1.02082 3.76949 78 56 69
-3.04986 1.70966 6.25623 91 103 135
0.51978 1.10063 4.00351 124 123 146
0.466164 1.10968 4.02838 135 121 142
0.551317 1.11969 3.96779 124 109 127
0.304348 1.21717 4.12174 104 98 121
0.442475 1.18993 4.03276 68 41 49
0.484897 1.18965 4.0151 75 56 75
0.426473 1.20582 4.05586 122 125 145
0.459856 1.19961 4.03284 59 42 59
0.831028 1.13176 3.78053 124 106 121
-0.149192 1.17461 3.91549 56 32 40
-1.5462 1.13988 3.80015 65 30 44
-0.113063 1.17305 3.90469 70 32 42
-0.113191 1.17186 3.90105 69 31 41
0.711797 1.16072 3.85737 71 51 64
0.78087 1.15389 3.80903 85 65 88
0.664464 1.18764 3.87947 139 126 147
1.08499 1.1139 3.59353 65 41 49
1.08499 1.1139 3.59353 65 41 49
-0.395685 1.22743 3.91363 73 35 51
-3.50164 1.90462 6.03974 18 45 23
-1.5951 1.20701 3.82673 65 34 48
-0.142937 1.23453 3.90645 78 34 43
-1.60486 1.21999 3.82673 63 33 49
-1.60486 1.21999 3.82673 63 33 49
-3.35019 1.89505 5.90927 127 145 147
-3.04092 1.92982 6.00964 26 34 39
-2.78576 1.92931 5.99475 27 31 48
1.50381 1.23716 3.78549 145 174 209
-1.22679 1.16995 3.56991 76 41 58
-1.22729 1.17036 3.57176 77 42 58
-0.154339 1.285 3.91269 82 37 52
0.285441 1.35698 4.11414 56 36 48
-1.50912 1.23787 3.74815 71 39 55
-0.193915 1.30031 3.92484 55 30 36
-1.0834 1.15307 3.47106 92 44 57
-1.0834 1.15307 3.47106 92 44 57
-0.86006 1.15135 3.46634 108 56 75
-0.86006 1.15135 3.46634 108 56 75
-3.11486 1.78357 5.34346 42 65 52
-3.11486 1.78357 5.34346 42 65 52
-2.77142 1.82132 5.45772 35 66 35
-3.14067 1.76715 5.28144 26 49 36
-1.77273 1.31941 3.92284 68 39 56
-0.374946 1.32238 3.9341 72 34 49
-0.360206 1.32864 3.94511 71 35 50
1.48705 1.27023 3.77568 81 104 141
-1.37063 1.23172 3.65946 79 45 63
-1.22516 1.2017 3.56336 84 45 65
0.630783 1.30728 3.87421 125 105 118
0.814654 1.2698 3.75844 93 68 85
-1.12942 1.18795 3.49345 74 43 60
-0.861784 1.17824 3.46199 98 50 68
-0.744238 1.19031 3.48691 88 47 66
0.891519 1.27668 3.70463 139 119 134
-0.843699 1.1965 3.4612 110 56 76
-1.41194 1.27834 3.68775 85 47 65
-0.11526 1.3471 3.86856 79 35 48
0.63724 1.35276 3.87097 66 49 71
-1.25178 1.25316 3.57308 90 45 58
0.842105 1.32506 3.73001 133 118 133
1.00734 1.29404 3.63515 119 118 142
0.855925 1.33248 3.72383 73 53 67
-0.0806967 1.40108 3.82608 121 77 98
-0.0196081 1.38897 3.77606 121 77 99
0.00799792 1.38544 3.75829 126 78 98
1.35595 1.36526 3.68127 54 43 61
-0.330549 1.44064 3.8811 73 42 53
-0.23679 1.43986 3.87661 69 37 46
-0.791734 1.30987 3.44242 120 79 98
-0.778784 1.31021 3.44443 127 80 100
0.679585 1.42898 3.73523 120 106 119
-0.970491 1.3227 3.36563 99 51 63
0.990487 1.3976 3.51761 88 77 103
0.449639 1.54834 3.84118 107 120 137
0.959606 1.42514 3.53441 113 105 121
-1.46206 1.44814 3.52412 32 33 98
-1.39057 1.43755 3.46251 91 82 149
-0.328811 -1.16291 4.99649 70 54 70
0.492617 -1.01555 4.39823 125 113 138
0.914137 -0.933118 4.09849 125 108 127
-0.444254 -1.14148 5.05096 128 117 140
-0.517145 -1.15037 5.10256 48 34 42
-1.10791 -1.24091 5.52921 77 56 73
-0.826078 -1.1697 5.22434 13 29 38
-0.09884 -1.07821 4.82209 132 113 134
-2.09059 -1.38485 6.21584 61 48 62
-0.519678 -1.13153 5.10155 128 117 142
-2.5568 -1.44517 6.53976 93 70 90
0.791437 -0.923159 4.16964 51 35 48
-0.770444 -1.14768 5.21054 156 133 116
-2.07343 -1.36388 6.20013 127 110 129
-1.69558 -1.30209 5.93941 76 54 71
0.732476 -0.915489 4.22198 51 38 55
-0.645499 -1.1182 5.17752 60 44 62
-0.859471 -1.12269 5.25122 167 151 126
-0.620928 -1.10556 5.16502 136 118 141
-0.803876 -1.10552 5.20785 37 23 23
0.138902 -0.980524 4.62602 100 69 83
-0.871225 -1.10972 5.26074 41 28 32
-0.840773 -1.09766 5.22346 29 20 24
-1.36678 -1.19425 5.69817 131 119 138
0.602973 -0.902143 4.30268 82 69 85
-1.23713 -1.16757 5.59949 41 31 45
0.0850737 -0.972959 4.66775 56 38 54
-0.0232922 -0.964672 4.73508 106 78 95
-0.549912 -1.03872 5.11095 65 49 68
-0.934196 -1.08139 5.3653 61 43 61
-0.934196 -1.08139 5.3653 61 43 61
-1.5621 -1.14185 5.75746 122 109 133
-1.43511 -1.13093 5.71593 133 113 134
-1.06346 -1.07949 5.46152 73 61 80
0.422888 -0.85644 4.41785 71 50 64
-1.17851 -1.05789 5.54012 61 46 64
0.372547 -0.832979 4.44189 78 57 75
0.371878 -0.832139 4.43721 78 57 76
0.712127 -0.786209 4.20187 127 106 127
-1.76011 -1.10184 5.93368 76 61 76
-0.87818 -0.906491 4.90545 72 28 35
-1.33416 -1.04026 5.63903 72 54 72
-1.33179 -1.03798 5.62675 72 53 70
-1.7503 -1.08138 5.92562 129 112 132
0.788626 -0.755313 4.14155 55 44 61
0.788626 -0.755313 4.14155 55 44 61
-1.05742 -0.902864 4.98506 154 97 111
0.935554 -0.726225 4.04222 62 50 73
-1.72639 -1.04956 5.9098 128 108 128
-1.97419 -1.02753 6.06642 84 62 82
-1.17495 -0.846127 5.07622 76 26 31
-0.763997 -0.800374 4.8289 78 37 48
-0.83472 -0.805682 4.90295 78 30 43
-2.41279 -1.03662 6.36041 129 118 142
-1.65285 -0.941301 5.83311 72 59 81
-1.82584 -0.951721 5.95296 71 56 68
0.542421 -0.687723 4.29729 78 64 82
0.542421 -0.687723 4.29729 78 64 82
-1.47067 -0.899862 5.71373 60 42 55
-2.6635 -1.01735 6.5343 87 60 75
-1.97154 -0.946146 6.06686 69 53 64
0.665978 -0.65055 4.19535 129 110 130
0.600909 -0.65742 4.25349 75 49 61
-0.539189 -0.702927 4.67553 111 55 67
0.955492 -0.593035 3.99399 50 35 52
0.397385 -0.62607 4.38536 72 54 67
-2.40054 -0.891925 6.30893 128 111 130
0.646333 -0.590371 4.20767 84 60 73
0.39178 -0.612356 4.38949 127 111 136
-2.50027 -0.889046 6.40916 127 109 127
-0.246932 -0.671258 4.82396 101 82 104
-2.40943 -0.873848 6.33573 69 57 72
-0.977854 -0.64027 4.85069 75 38 43
-2.17928 -0.793568 6.16791 84 54 64
-2.30113 -0.762456 6.2388 74 60 71
-1.12963 -0.606515 4.95175 136 82 97
-1.12503 -0.603281 4.92592 136 82 97
-1.73049 -0.713364 5.85444 68 54 67
-0.85624 -0.569439 4.67723 48 23 28
0.47443 -0.523569 4.31163 126 111 133
-1.31067 -0.597902 4.97983 119 66 73
0.0264785 -0.558477 4.64735 135 116 134
-0.100918 -0.557617 4.70631 151 125 139
0.474936 -0.510213 4.31548 84 62 74
0.613434 -0.486913 4.21983 138 124 147
0.572528 -0.483515 4.24354 129 112 135
-2.6306 -0.730412 6.44993 128 110 128
-2.01448 -0.674674 6.03399 73 51 58
-2.05243 -0.670105 6.0711 70 46 54
-1.13188 -0.528926 4.85831 46 22 26
-2.18577 -0.637785 6.1394 129 104 122
-2.82398 -0.679298 6.57281 106 91 122
0.35403 -0.453272 4.38753 133 116 134
-2.24171 -0.634694 6.18258 130 109 130
0.210014 -0.450325 4.49016 96 67 80
0.210014 -0.450325 4.49016 96 67 80
0.779221 -0.407112 4.08825 63 50 58
0.778606 -0.406864 4.08583 63 50 58
0.758832 -0.4055 4.10004 70 57 67
0.655466 -0.404602 4.16661 123 99 113
0.758634 -0.38991 4.1011 136 113 127
0.140425 -0.418445 4.52864 127 108 127
-0.0176783 -0.418903 4.62628 89 58 71
-0.768884 -0.417405 4.71721 111 78 102
0.369625 -0.375377 4.37535 61 48 58
1.49824 -0.31147 4.09414 58 65 97
-1.65261 -0.408091 5.74897 55 34 44
-0.0699637 -0.31343 4.64884 99 64 76
0.091269 -0.30339 4.54542 85 58 69
0.860234 -0.263287 4.01797 129 107 129
-0.658382 -0.296375 4.56376 131 82 100
-0.627908 -0.299913 4.60831 66 27 37
-0.0379211 -0.295424 4.63357 90 64 77
0.0436926 -0.254221 4.56604 99 74 92
0.0436926 -0.254221 4.56604 99 74 92
0.713295 -0.23087 4.10522 88 59 71
-0.720028 -0.255639 4.61519 119 69 85
0.476274 -0.23311 4.27157 137 112 126
-0.603934 -0.252586 4.63133 115 71 80
-1.3095 -0.257646 5.0587 60 25 33
-0.12044 -0.231723 4.58175 57 25 32
0.539711 -0.202451 4.22229 116 109 131
-1.18249 -0.226398 4.91969 130 82 98
-1.181 -0.22654 4.91179 131 81 98
-2.3946 -0.242839 6.19787 56 39 50
-2.3946 -0.242839 6.19787 56 39 50
-1.17417 -0.192007 4.91473 100 58 70
-1.24419 -0.189827 4.94976 100 60 75
-0.749826 -0.176052 4.66295 128 78 92
0.0498112 -0.170237 4.5511 97 72 94
-1.55558 -0.188352 5.30023 80 32 39
-1.55558 -0.188352 5.30023 80 32 39
-0.620267 -0.164171 4.64267 64 24 28
-0.619895 -0.164863 4.63758 65 24 28
1.02686 -0.137844 3.86938 95 68 83
-1.87397 -0.19376 5.85515 52 41 50
-1.5428 -0.168407 5.2461 139 84 96
-2.61554 -0.201198 6.34688 136 114 132
-1.21147 -0.139669 4.96277 60 24 31
-1.21147 -0.139669 4.96277 60 24 31
-1.26078 -0.131307 4.99637 67 29 36
-1.90179 -0.130611 5.85596 70 54 64
-1.9029 -0.130774 5.85988 71 56 66
-1.17374 -0.103432 4.93204 55 22 27
-0.846839 -0.0955785 4.81138 55 25 35
-2.47826 -0.100485 6.23684 70 57 71
-2.47826 -0.100485 6.23684 70 57 71
0.643885 -0.0667353 4.11735 71 54 68
0.529563 -0.044005 4.20087 120 110 129
-0.889666 -0.0460703 4.82987 68 30 35
-2.46841 -0.055034 6.26378 58 45 57
-1.14841 -0.0256346 4.93873 48 20 22
-0.943988 0.0401419 4.85753 111 66 74
-0.13023 0.0389437 4.63091 64 44 56
-1.08416 0.0592799 4.94704 64 32 41
-1.81815 0.0728239 5.76484 69 51 62
-0.80572 0.0753211 4.75901 105 61 67
0.632414 0.0774369 4.11 56 39 49
-1.70329 0.132963 5.67859 124 104 123
0.331558 0.118173 4.29919 86 55 65
-2.17272 0.168341 5.97908 58 45 60
0.214094 0.12862 4.3835 86 57 68
0.376536 0.127033 4.2807 119 103 127
-0.476208 0.142287 4.64905 55 27 36
0.337738 0.130941 4.29433 131 109 133
0.692717 0.12951 4.05693 76 54 63
-2.22786 0.201411 6.00743 121 107 126
-0.741661 0.158455 4.70911 119 69 79
-0.741661 0.158455 4.70911 119 69 79
-0.465804 0.161442 4.64265 92 66 86
0.1401 0.153506 4.41942 144 121 140
1.50372 0.156101 4.00528 172 198 235
-1.86946 0.263146 5.76445 74 51 60
0.855151 0.199371 3.93611 58 39 47
0.652799 0.227768 4.06899 60 44 56
0.901616 0.221507 3.89529 130 116 135
0.42638 0.252974 4.21654 67 43 48
0.475493 0.252611 4.20515 52 41 49
-0.618396 0.319334 4.597 64 26 31
-0.618396 0.319334 4.597 64 26 31
-0.69793 0.324336 4.61481 53 21 25
-0.285582 0.32082 4.50799 66 28 34
0.485994 0.312797 4.16571 75 57 74
-0.302071 0.343403 4.50715 55 24 33
-1.15346 0.390867 4.92843 50 21 24
-1.15368 0.391673 4.92968 49 20 25
-0.471717 0.366163 4.61425 63 29 40
-0.025783 0.329709 4.08443 59 21 27
-1.39663 0.42143 5.19118 117 65 75
0.907983 0.320994 3.87408 78 57 76
-2.53794 0.517733 6.17266 69 59 76
-0.327887 0.387962 4.50521 142 96 111
1.06874 0.330179 3.75622 135 113 128
-0.253222 0.411538 4.44324 53 30 39
-0.301012 0.420157 4.49282 58 28 37
-1.36226 0.491547 5.20384 50 24 31
-1.36226 0.491547 5.20384 50 24 31
-0.378724 0.430355 4.54753 57 25 32
0.68223 0.381109 4.02146 135 110 125
0.564305 0.400824 4.10594 82 63 77
-0.392803 0.449281 4.54758 61 24 31
-0.86287 0.472185 4.71079 190 181 157
-1.87063 0.537446 5.29924 72 30 31
-0.885821 0.479479 4.72725 157 147 135
0.647065 0.410783 4.04558 129 113 132
-2.17122 0.602109 5.90812 46 35 46
0.395986 0.437691 4.21493 62 43 51
-2.51889 0.642073 6.13167 66 59 81
-2.17689 0.621947 5.90847 117 97 120
-1.36064 0.56626 5.20045 52 25 36
-1.86843 0.579309 5.28977 61 24 29
-1.41714 0.571424 5.20681 52 26 34
-0.450237 0.506043 4.58679 58 23 32
-0.309835 0.503139 4.46757 84 40 48
-0.345271 0.505967 4.48137 98 49 58
-0.46839 0.525185 4.5881 59 24 33
1.61329 0.459051 3.9927 116 118 168
1.61329 0.459051 3.9927 116 118 168
-0.280662 0.536273 4.43372 140 87 102
-0.280662 0.536273 4.43372 140 87 102
-0.675992 0.556237 4.5916 61 24 29
-0.355763 0.542702 4.41862 155 102 119
-1.37313 0.642351 5.1702 85 40 48
-0.265661 0.549711 4.43189 69 34 42
1.08639 0.462937 3.7204 135 114 132
-1.18996 0.623685 4.92946 60 26 36
0.410198 0.554184 4.17718 74 57 73
-1.33029 0.687681 5.1371 51 21 30
-0.591789 0.603106 4.52474 62 24 32
-0.591789 0.603106 4.52474 62 24 32
0.824202 0.527603 3.88774 63 43 55
0.532058 0.382323 2.79261 55 46 64
0.946212 0.522509 3.81165 133 118 134
0.843937 0.533997 3.87089 134 116 134
-1.22717 0.686577 4.94641 64 28 39
-1.22717 0.686577 4.94641 64 28 39
-0.210491 0.610848 4.39986 56 25 31
-0.210491 0.610848 4.39986 56 25 31
-0.928418 0.640392 4.59894 199 191 175
0.731992 0.55449 3.96372 71 54 76
0.845346 0.547576 3.86832 88 62 74
-0.912167 0.653589 4.59617 123 107 103
-0.625984 0.66326 4.54825 64 26 36
-1.5726 0.776377 5.29369 48 23 29
-0.0476529 0.629247 4.28173 52 22 28
0.753597 0.579388 3.92412 149 125 140
-0.902517 0.69539 4.58524 118 108 118
0.963084 0.578554 3.78351 97 73 87
-0.965092 0.702958 4.56546 184 180 166
-0.276393 0.696102 4.43643 63 25 32
-0.915334 0.722155 4.56522 37 21 20
-0.790579 0.727139 4.55759 208 202 191
-0.292996 0.716762 4.43987 60 22 29
-0.610937 0.732433 4.51747 131 80 89
-0.687931 0.742986 4.56717 128 73 82
-2.17222 0.953745 5.85241 58 48 60
0.445273 0.683819 4.13271 68 45 60
-1.06273 0.804602 4.81554 46 22 29
-1.35109 0.862877 5.14058 53 20 28
-2.77414 1.05317 6.23239 88 97 134
0.367491 0.707067 4.18408 122 110 131
-0.385758 0.770169 4.48954 68 28 34
-1.08523 0.828861 4.78521 64 28 30
-0.119291 0.747435 4.31635 55 23 32
-0.668038 0.808379 4.5431 61 22 30
-0.648138 0.808647 4.5301 129 75 87
-0.627014 0.804801 4.5173 64 24 31
0.527973 0.72362 4.05345 93 65 73
-1.16077 0.87715 4.86937 128 77 90
-1.14046 0.8767 4.85362 55 24 33
0.608963 0.728619 3.99765 85 62 83
-0.0314517 0.756747 4.13718 141 94 110
-2.37845 1.13249 5.95118 22 28 51
-2.29675 1.11885 5.89859 18 25 49
0.309288 0.810367 4.185 74 51 64
-3.05343 1.23105 6.34508 33 35 59
-0.0846942 0.816315 4.09451 156 102 119
-2.33688 1.18026 5.90802 160 177 243
0.840825 0.777213 3.84492 125 110 130
-2.20922 1.18548 5.84366 120 112 133
0.59081 0.81215 3.98141 23 67 178
-2.33336 1.21238 5.8926 157 174 239
0.615264 0.815801 3.97255 44 65 160
0.898967 0.798039 3.78961 88 61 77
-3.05083 1.35119 6.32199 29 30 52
-2.28651 1.25587 5.86913 16 22 45
-2.36888 1.27318 5.91384 20 23 50
0.290714 0.902494 4.18326 127 117 136
-1.68356 1.09641 4.99421 50 33 40
-3.04191 1.39359 6.31042 20 24 58
-1.00046 1.00201 4.54817 125 139 186
-1.73272 1.11613 5.019 125 83 97
-0.898344 1.01041 4.46219 77 49 67
-0.724591 0.984682 4.35815 46 30 39
-2.54339 1.36799 6.02238 131 119 146
-0.377866 0.939909 4.13503 69 41 51
-0.155926 0.907241 3.97698 44 26 32
-0.691253 0.993983 4.33847 134 89 107
0.500807 0.931904 4.05638 68 47 54
0.500807 0.931904 4.05638 68 47 54
-0.41035 0.958071 4.15128 134 83 99
-0.410442 0.958938 4.15347 135 84 101
0.49448 0.945117 4.05742 116 109 133
0.413449 0.96085 4.09705 121 106 127
0.397701 0.976622 4.10796 60 44 62
0.747489 0.936657 3.87908 120 107 127
-0.550917 1.02444 4.23109 55 25 33
-0.291065 1.00381 4.06324 62 32 39
0.823312 0.949632 3.81549 88 62 70
-0.0221139 0.992382 3.88192 81 44 54
-0.0221139 0.992382 3.88192 81 44 54
-1.23342 1.18702 4.59938 72 47 57
0.0494603 1.01445 3.82386 101 59 64
0.48349 1.06559 4.01843 68 51 63
0.48349 1.06559 4.01843 68 51 63
0.576947 1.05593 3.96655 134 112 127
0.0619788 1.00594 3.75147 162 116 135
0.60614 1.06346 3.94281 68 55 70
0.991423 1.00844 3.69283 70 51 63
0.733083 1.06329 3.86135 133 120 139
0.990473 1.01747 3.68359 135 112 123
1.06341 1.0083 3.6359 137 114 125
1.10999 1.00129 3.60111 127 103 116
0.535558 1.11547 3.98738 81 61 74
-3.06204 1.75165 6.23498 24 28 47
-0.25379 1.12398 3.96423 88 55 58
-3.01933 1.79951 6.22134 21 23 52
0.563063 1.14926 3.9564 130 116 136
0.563063 1.14926 3.9564 130 116 136
-3.03616 1.81033 6.2148 75 81 108
0.518225 1.16398 3.99788 128 124 146
0.518225 1.16398 3.99788 128 124 146
0.438552 1.19035 4.04393 73 50 56
1.07298 1.0671 3.61644 92 63 68
0.818531 1.13657 3.8024 61 46 66
0.405361 1.21808 4.06502 109 105 131
0.405361 1.21808 4.06502 109 105 131
-0.401901 1.17631 3.9132 68 39 56
-0.401901 1.17631 3.9132 68 39 56
0.625099 1.18109 3.91666 66 46 55
-0.469273 1.14921 3.80067 77 41 57
0.586393 1.19625 3.93829 132 125 154
0.995344 1.11537 3.66698 61 48 64
0.995344 1.11537 3.66698 61 48 64
0.628305 1.19263 3.90739 133 124 152
-0.59241 1.10903 3.59784 76 41 60
-0.815189 1.08007 3.48933 84 52 71
-0.815189 1.08007 3.48933 84 52 71
-0.0272296 1.21165 3.83875 70 38 49
-0.360973 1.2545 3.96 74 32 46
-0.581372 1.15866 3.61599 80 45 63
-0.581372 1.15866 3.61599 80 45 63
-2.83476 1.91381 5.9614 55 54 67
-0.00100674 1.22065 3.79964 62 35 47
0.788362 1.23644 3.78627 132 116 134
-1.6376 1.25456 3.83343 62 40 56
1.47972 1.23883 3.77741 109 131 161
1.47062 1.2486 3.80232 46 51 74
-0.0534684 1.2766 3.8563 78 37 50
-0.0716736 1.28756 3.8459 72 33 45
-0.520464 1.25279 3.6983 75 44 62
0.443999 1.35914 4.01112 100 91 109
0.443999 1.35914 4.01112 100 91 109
0.628847 1.324 3.88308 61 44 55
0.650116 1.32213 3.86842 70 53 64
0.442928 1.37445 4.019 37 29 42
-0.921006 1.18657 3.46291 84 53 72
-3.01036 1.70649 4.97322 38 62 45
-0.758467 1.20146 3.48027 75 39 58
0.649924 1.33624 3.87062 111 103 126
-0.896147 1.19465 3.44562 88 51 73
-0.148688 1.35258 3.88781 65 41 50
0.285646 1.4241 4.09686 55 46 59
-0.590161 1.24428 3.56972 98 56 80
0.514929 1.38039 3.95003 79 56 71
1.02646 1.26723 3.61936 69 47 62
-0.491593 1.31756 3.73447 82 46 66
0.710795 1.34718 3.82363 83 69 103
0.986566 1.28741 3.6446 48 30 44
1.00552 1.28119 3.63023 65 46 56
0.830365 1.32842 3.74617 123 108 122
0.511636 1.3992 3.94276 76 63 73
1.03268 1.28392 3.61303 55 41 55
0.593086 1.38811 3.89252 101 73 84
-1.75029 1.39036 3.87906 102 73 89
-1.75029 1.39036 3.87906 102 73 89
-0.280361 1.42174 3.94276 84 58 68
1.36007 1.33025 3.68918 73 82 104
-0.350649 1.418 3.91635 99 70 86
-1.61166 1.37277 3.78798 102 70 90
-1.61166 1.37277 3.78798 102 70 90
-0.80865 1.25392 3.45952 82 43 62
-0.80865 1.25392 3.45952 82 43 62
-0.84581 1.25267 3.45039 78 48 67
-0.365437 1.40937 3.88469 103 74 91
-0.365437 1.40937 3.88469 103 74 91
-0.316538 1.42746 3.9328 146 106 124
-0.152121 1.4074 3.86431 109 69 83
-0.42791 1.3889 3.79171 110 76 93
-0.42791 1.3889 3.79171 110 76 93
-1.40632 1.30657 3.55572 105 70 91
-1.50364 1.39551 3.80213 110 70 91
-1.38472 1.34064 3.62837 97 69 87
-1.38472 1.34064 3.62837 97 69 87
0.0658301 1.38315 3.742 131 77 99
-1.3598 1.33831 3.61414 103 70 91
-1.3611 1.34015 3.61832 104 70 89
1.04876 1.33328 3.58496 71 64 87
1.04847 1.33309 3.58419 72 64 88
-1.58909 1.39353 3.73619 55 33 44
-1.20032 1.31925 3.50998 112 73 91
-0.583826 1.33422 3.54473 103 77 94
-0.583826 1.33422 3.54473 103 77 94
-0.424108 1.40988 3.73765 96 60 73
-1.03921 1.29159 3.41047 167 119 141
-0.614335 1.32123 3.49017 115 77 95
-0.614335 1.32123 3.49017 115 77 95
-1.09244 1.30484 3.43428 107 72 91
-1.09244 1.30484 3.43428 107 72 91
-0.810724 1.30873 3.43807 125 83 106
-1.35232 1.36175 3.57071 82 44 59
-1.03164 1.29672 3.39596 105 66 88
0.667751 1.42947 3.74132 67 57 76
-0.774855 1.33203 3.40455 105 58 68
-0.463477 1.43938 3.66195 80 70 81
0.952362 1.4045 3.5426 111 97 113
-1.54895 1.43989 3.49616 47 35 58
-1.39308 1.43955 3.48905 184 210 255
0.953409 1.49816 3.52753 96 82 93
1.33145 1.4881 3.50337 25 21 29
1.06543 1.47683 3.45047 15 21 37
0.480729 -1.02592 4.39825 71 56 77
0.923881 -0.946531 4.09009 56 40 52
-0.69887 -1.18603 5.18137 46 38 47
-0.783318 -1.18602 5.20632 35 40 48
-0.809774 -1.18541 5.21593 58 103 120
-0.809774 -1.18541 5.21593 58 103 120
-0.103026 -1.09335 4.81521 76 55 68
-0.68466 -1.16826 5.20066 109 85 107
-0.868682 -1.18325 5.2746 47 32 40
0.312232 -1.00724 4.51643 87 60 72
-1.63304 -1.30751 5.87713 82 57 71
-1.63304 -1.30751 5.87713 82 57 71
0.729229 -0.930193 4.21488 122 105 124
-0.64423 -1.13762 5.17137 129 103 126
-0.831448 -1.13821 5.22958 39 32 43
-1.35714 -1.21435 5.69297 75 57 67
0.0290171 -0.989656 4.7062 81 57 66
0.0544172 -0.964778 4.69899 61 46 58
0.53211 -0.884512 4.34341 79 57 70
0.533565 -0.886086 4.35137 79 58 70
-1.54657 -1.17532 5.7995 90 65 84
-1.23864 -1.13704 5.59931 124 114 136
0.250746 -0.887809 4.53395 139 119 136
0.966395 -0.776237 4.02568 57 41 56
0.966395 -0.776237 4.02568 57 41 56
-0.229696 -0.937081 4.88153 79 60 77
0.793745 -0.767748 4.12801 127 103 123
0.913304 -0.756508 4.06294 123 110 135
-1.04785 -0.922044 5.01879 151 97 114
0.729173 -0.756243 4.17656 126 102 120
0.0964671 -0.83234 4.629 101 69 80
0.524695 -0.778956 4.32318 129 108 128
0.523788 -0.777822 4.3181 129 108 130
0.754816 -0.744697 4.17122 36 27 36
0.754816 -0.744697 4.17122 36 27 36
-0.583356 -0.822385 4.72184 115 53 69
0.747078 -0.723502 4.16866 115 97 121
0.643239 -0.731956 4.23366 50 41 54
-1.19962 -0.869217 5.07352 53 29 38
-0.596205 -0.803606 4.70312 155 104 122
-1.6483 -0.986884 5.84065 78 58 68
0.570711 -0.726333 4.28892 73 59 79
-1.22318 -0.854055 5.09019 53 31 38
-0.321666 -0.81572 4.90824 99 68 82
-0.597245 -0.778497 4.70026 78 29 29
-2.10919 -1.00992 6.12056 84 67 83
-0.721858 -0.792661 4.81059 103 46 51
-0.721858 -0.792661 4.81059 103 46 51
-1.23325 -0.8284 5.09201 139 89 105
-0.67192 -0.768403 4.77938 64 29 36
-0.67192 -0.768403 4.77938 64 29 36
0.381555 -0.705587 4.4228 73 53 67
-1.00393 -0.757059 4.79298 120 66 73
0.640668 -0.661218 4.22435 69 47 57
0.640668 -0.661218 4.22435 69 47 57
0.690871 -0.650638 4.18349 125 108 133
0.690871 -0.650638 4.18349 125 108 133
0.97882 -0.609235 3.97804 120 96 118
-2.82887 -0.965034 6.61683 118 110 136
0.427422 -0.629395 4.37129 65 47 58
0.346672 -0.618721 4.42227 78 55 65
0.34669 -0.618719 4.42239 77 55 65
0.420738 -0.611205 4.37423 123 114 139
-3.78078 -0.952694 6.94734 136 116 132
0.552101 -0.585731 4.27325 132 120 145
0.737867 -0.571905 4.16244 74 58 78
-0.605313 -0.613355 4.55298 102 55 62
-0.605313 -0.613355 4.55298 102 55 62
-3.76333 -0.925854 6.96716 100 114 157
-3.76333 -0.925854 6.96716 100 114 157
0.695485 -0.553212 4.1696 66 57 68
0.695485 -0.553212 4.1696 66 57 68
0.622525 -0.559686 4.22646 60 40 47
0.622525 -0.559686 4.22646 60 40 47
0.564354 -0.554775 4.26719 72 53 62
-1.67179 -0.729617 5.8214 49 31 41
-1.66997 -0.728407 5.81406 47 30 40
0.0144309 -0.571381 4.64765 82 53 58
-0.257936 -0.568873 4.79025 35 20 25
0.582942 -0.499477 4.25401 73 56 66
0.917733 -0.444894 3.99622 122 98 117
-2.11518 -0.664255 6.09977 53 40 49
0.36811 -0.467602 4.3856 81 59 67
-2.22678 -0.657399 6.17754 63 39 47
-1.44448 -0.530294 5.09343 68 32 34
-1.44848 -0.510457 5.06174 133 87 99
1.49319 -0.40981 4.10251 38 37 55
0.820909 -0.400504 4.06385 126 108 130
-1.53239 -0.49474 5.21591 69 33 35
0.119164 -0.421369 4.5428 81 59 72
-0.687016 -0.430729 4.65635 130 83 99
-0.127798 -0.398964 4.69834 89 60 72
-0.918087 -0.39928 4.81214 127 77 93
-0.229792 -0.355408 4.4284 166 117 133
-1.01549 -0.386119 4.86976 130 79 95
0.364333 -0.346304 4.38999 54 34 42
-0.646966 -0.324555 4.565 132 88 105
0.0118972 -0.325477 4.59533 137 114 131
-0.32408 -0.307573 4.39448 144 95 109
-0.346917 -0.299061 4.40111 60 30 35
-0.0329421 -0.31255 4.63039 144 118 137
0.00385661 -0.308873 4.60186 93 62 71
0.00385661 -0.308873 4.60186 93 62 71
-1.30237 -0.300952 5.04719 112 67 79
-0.759867 -0.278006 4.66059 44 19 27
-3.19153 -0.382785 6.66235 28 44 69
-1.40847 -0.290188 5.19903 59 27 34
-0.686609 -0.207314 4.63268 66 30 35
-0.686609 -0.207314 4.63268 66 30 35
0.372366 -0.177147 4.32597 60 41 49
-1.23016 -0.180179 4.97232 61 28 33
-1.17844 -0.170501 4.95589 52 20 23
-1.18854 -0.121802 4.93229 124 74 92
-1.84122 -0.13824 5.82654 66 51 64
0.911497 -0.0952316 3.94535 61 45 55
0.817567 -0.0823411 4.01066 67 49 60
-1.14056 -0.0929726 4.99159 57 22 23
-2.65938 -0.0880067 6.36694 85 67 83
0.552044 -0.0546 4.19324 70 47 52
0.245316 -0.00643193 4.38444 69 47 55
0.245316 -0.00643193 4.38444 69 47 55
-0.869472 0.0349931 4.80665 45 18 18
-0.966426 0.0474788 4.87579 48 21 22
0.857895 0.0426007 3.96063 71 48 59
0.858341 0.0424355 3.96223 71 48 58
-0.990129 0.0638633 4.88286 110 62 70
-1.00872 0.0799006 4.8949 49 21 22
0.702339 0.0648318 4.06192 82 57 64
-1.02681 0.104582 4.9049 111 63 73
0.467119 0.09656 4.22747 64 43 52
-0.436045 0.128768 4.61843 106 60 70
-0.436045 0.128768 4.61843 106 60 70
0.361677 0.11859 4.2913 48 33 41
0.361645 0.118504 4.29108 47 33 40
1.10426 0.113778 3.77247 84 60 72
-1.0507 0.152556 4.91842 112 67 80
0.2437 0.13657 4.37949 138 119 143
1.08668 0.133924 3.77881 134 110 127
-0.469592 0.178589 4.64802 57 28 29
-1.06923 0.223451 4.83994 53 24 26
-1.11086 0.227039 4.84929 50 23 24
0.359527 0.201967 4.27011 67 47 61
0.359527 0.201967 4.27011 67 47 61
-1.08196 0.241746 4.83511 99 58 68
0.799847 0.20075 3.96923 66 39 44
0.883764 0.198291 3.91518 41 29 38
0.86557 0.211757 3.93187 125 108 127
-1.33196 0.294309 5.2116 45 25 30
-0.346341 0.264087 4.49709 49 20 25
0.660043 0.24178 4.06106 131 115 134
-2.00795 0.430583 5.83257 50 35 45
-0.00812288 0.305 4.0625 159 111 127
-1.14493 0.372352 4.92207 98 73 93
-1.13327 0.387559 4.93252 51 22 25
-1.13327 0.387559 4.93252 51 22 25
-1.41701 0.410873 5.19237 55 21 23
0.479809 0.339346 4.16297 69 54 69
0.49857 0.340682 4.15027 131 109 127
-0.0333868 0.349982 4.08209 122 69 80
0.914954 0.33395 3.86573 125 108 129
0.890942 0.344145 3.87647 137 120 135
0.890942 0.344145 3.87647 137 120 135
0.960216 0.35667 3.83206 64 46 57
0.69934 0.388074 4.00394 62 41 46
-0.906708 0.493615 4.6957 94 75 69
0.426535 0.442267 4.18465 120 104 124
1.48831 0.439723 3.96347 66 69 105
-0.284049 0.518867 4.4471 79 39 50
1.10534 0.453284 3.7051 129 105 121
-0.885802 0.604874 4.74577 178 163 129
-0.265399 0.586514 4.43206 39 19 25
-0.265399 0.586514 4.43206 39 19 25
-0.673444 0.614238 4.58591 75 38 45
-1.18898 0.681874 4.93464 65 32 40
0.918428 0.538814 3.82918 134 125 148
0.914993 0.560994 3.82539 141 122 138
-0.887781 0.686111 4.6034 129 110 98
0.928541 0.569257 3.81307 81 62 80
-0.996857 0.685008 4.58111 22 14 13
-0.173119 0.659121 4.30324 66 25 26
-0.899432 0.715856 4.56663 163 155 142
0.467343 0.670344 4.10915 79 57 74
-0.990376 0.770222 4.66647 101 88 65
0.428806 0.682464 4.14107 77 60 73
1.06151 0.618183 3.70323 138 111 125
-1.08242 0.814056 4.8044 126 75 86
-3.12757 1.08049 6.36826 30 46 76
-0.449274 0.767495 4.52334 59 28 36
0.0313391 0.731535 4.08152 69 32 35
0.685867 0.753213 3.93766 139 118 132
0.589072 0.790576 4.0149 57 42 57
0.260221 0.847915 4.22818 128 118 144
0.37962 0.834861 4.13164 149 121 138
0.37962 0.834861 4.13164 149 121 138
-2.30887 1.19187 5.87875 21 26 48
-2.31159 1.19406 5.8864 20 25 46
-1.916 1.07651 5.26816 152 104 122
-1.91143 1.07324 5.25382 151 100 118
0.267166 0.892132 4.2068 87 54 63
-2.75107 1.32791 6.16067 101 87 108
-0.581794 0.952749 4.27409 57 38 47
-0.521184 0.949676 4.24033 54 40 47
-1.00969 1.01867 4.54191 75 41 54
-0.178208 0.899682 4.00339 136 88 106
-0.594067 0.965732 4.27691 137 92 110
-0.44333 0.943753 4.16004 63 37 44
-2.77825 1.41724 6.16662 150 166 210
0.352582 0.948889 4.13435 134 105 118
0.481094 0.933347 4.06146 131 128 147
-0.123869 0.921575 3.96542 134 87 104
-2.75446 1.43872 6.15464 103 92 116
0.471338 0.949583 4.05859 65 49 68
0.470987 0.949056 4.05662 63 47 66
-0.407488 0.976259 4.16129 57 37 45
0.303229 0.985827 4.17551 125 122 148
0.708458 0.928817 3.90297 71 56 67
0.409633 0.990634 4.10013 114 108 132
0.409732 0.990932 4.10076 115 109 133
1.03357 0.900368 3.6791 130 112 127
0.720284 0.959716 3.88181 72 57 75
-0.307503 1.02908 4.07251 93 49 60
-0.307503 1.02908 4.07251 93 49 60
1.48146 0.992669 3.86914 53 54 82
-0.952549 1.15379 4.41538 50 41 50
-0.777386 0.962245 3.60143 60 46 56
0.907251 1.00177 3.74874 134 116 133
0.591857 1.06753 3.95629 65 47 64
0.837727 1.02863 3.79609 62 45 57
0.83725 1.02802 3.79442 63 45 58
0.806483 1.03655 3.8169 67 55 66
0.806483 1.03655 3.8169 67 55 66
-3.10544 1.70356 6.22569 36 50 73
0.796729 1.04819 3.82252 126 113 133
0.83818 1.04363 3.79248 124 112 130
0.296701 1.13647 4.12438 70 38 44
-3.02201 1.79307 6.26589 114 125 163
-0.659152 1.01886 3.50328 124 78 90
-0.970479 1.00531 3.4415 124 77 91
0.504294 1.18541 4.00756 79 63 82
0.661556 1.17418 3.89306 63 46 60
0.837778 1.14348 3.77805 67 47 55
0.397258 1.25041 4.05749 120 116 139
-3.14757 1.9041 6.14879 108 100 120
1.10887 1.12392 3.57928 124 100 114
1.48392 1.20159 3.77825 118 141 177
-0.68398 1.15087 3.49668 84 47 63
-0.68398 1.15087 3.49668 84 47 63
0.339135 1.35052 4.08791 47 30 40
0.544336 1.34759 3.94195 134 109 122
-0.24375 1.35646 3.95712 58 41 48
0.415075 1.38283 4.02173 118 109 140
0.714231 1.31515 3.81641 47 33 42
0.476624 1.37653 3.9866 58 43 55
0.438682 1.3881 4.00892 107 101 135
0.711423 1.33352 3.82899 98 93 121
0.787685 1.33661 3.77193 129 114 130
-0.740625 1.23599 3.48064 86 51 68
-0.860839 1.23146 3.45245 86 51 70
0.654475 1.38075 3.84768 98 70 85
-0.308185 1.42585 3.96551 63 44 56
1.5265 1.37146 3.81223 86 103 139
0.930817 1.32821 3.67524 141 129 153
1.29217 1.36434 3.74597 39 34 51
0.925949 1.34274 3.67295 80 62 74
-0.262449 1.44354 3.89612 62 33 40
0.318107 1.47733 3.97736 55 52 65
-0.353481 1.43636 3.85325 79 51 63
1.06636 1.33385 3.54553 131 122 139
-0.890606 1.3263 3.38159 99 53 64
1.09468 1.36312 3.45183 133 121 136
-1.40513 1.43381 3.50556 66 71 102
0.980408 1.47795 3.51259 149 169 236
1.12259 1.48381 3.40956 84 81 84
1.50231 -0.959511 4.2065 52 58 91
